117.164001 16.912399 895.265015 
62.816700 86.440498 831.112000 
63.950001 99.505997 812.627014 
79.132500 103.721001 807.526001 
103.567001 147.253006 794.877014 
111.004997 39.576801 851.952026 
70.677902 170.529999 774.455017 
134.406998 21.364901 867.013977 
82.072800 66.422600 837.708008 
84.276199 158.445007 782.232971 
114.398003 117.869003 803.780029 
69.336304 99.640503 811.247986 
189.044006 69.848900 852.062988 
107.957001 23.083700 882.140991 
85.731201 67.478302 835.044006 
70.308098 149.319000 776.739014 
158.281998 90.620201 827.156006 
159.628998 25.921101 862.880981 
120.117996 92.456299 817.267029 
170.643005 88.029297 833.781006 
152.945999 84.720901 827.867004 
206.481995 56.396000 873.534973 
133.145004 126.315002 812.331970 
177.606995 23.935900 865.890991 
123.777000 11.039600 897.299011 
136.533005 81.898697 824.888000 
166.431000 81.156303 833.976013 
72.236702 118.115997 796.747986 
151.774994 23.546801 864.802002 
104.303001 39.170601 854.250000 
112.796997 29.361799 861.604980 
70.532700 108.734001 803.643982 
31.703199 162.229004 760.174011 
96.459000 144.171005 788.945007 
46.135601 114.278000 805.258972 
202.975998 52.828800 867.648010 
110.630997 71.228401 829.520020 
91.473701 40.781898 869.476990 
113.989998 139.942001 801.213989 
141.817001 115.921997 815.929993 
48.334301 132.341995 784.919983 
123.320000 76.199097 826.614990 
133.520996 99.406403 815.541992 
66.090797 131.393997 787.380005 
115.957001 26.762600 863.429016 
155.820007 27.765499 860.781006 
172.007004 91.598900 834.674988 
188.164001 83.952400 856.854004 
149.626007 26.370800 861.711975 
141.910004 56.830101 841.418030 
61.341202 165.617004 767.969971 
77.153198 61.475300 853.200012 
73.861504 113.260002 800.299011 
60.743401 90.886597 826.461975 
162.097000 42.352001 851.867004 
140.009003 90.631203 820.999023 
59.449699 99.362000 815.093994 
120.703003 20.373100 869.971985 
150.817001 49.829700 846.679993 
110.982002 137.992996 797.981018 
100.727997 59.124500 838.265015 
144.250000 111.799004 816.919006 
107.448997 118.889999 801.820007 
149.557007 99.109398 820.934021 
169.998993 25.813499 864.044983 
68.850197 134.115005 785.987000 
162.992004 96.429901 828.138000 
58.578098 105.712997 808.125000 
124.676003 43.163300 848.143005 
117.177002 85.854599 820.604980 
23.103901 155.181000 764.640991 
91.191597 44.968800 856.419983 
93.758698 155.138000 789.408020 
74.439301 147.759003 778.690002 
203.460999 62.713299 870.833984 
76.157898 133.996002 787.039978 
70.724197 71.418900 850.966003 
110.489998 20.699400 883.343018 
73.567200 67.207001 849.702026 
52.105000 129.759003 787.107971 
193.414001 38.146900 861.534973 
146.104996 21.275900 867.315002 
123.872002 36.561798 853.021973 
65.232498 178.098007 772.908997 
107.362999 135.259995 795.768982 
136.350006 75.906799 828.382019 
177.376999 75.767700 841.395020 
155.235992 47.389198 848.489990 
117.810997 57.477200 838.481995 
88.692802 144.567993 784.862976 
142.779007 10.660700 879.947021 
195.281006 71.928902 860.672974 
81.365402 162.067001 780.982971 
109.806000 77.461998 825.471008 
75.627296 108.603996 803.804993 
79.928596 169.766006 785.958984 
28.501499 132.910004 791.289978 
110.521004 129.529999 798.297974 
89.595001 86.598297 819.853027 
199.595001 60.171700 864.398987 
79.209900 114.242996 800.030029 
146.462997 122.572998 827.103027 
143.350006 39.320499 851.630005 
79.936302 128.802994 790.976990 
115.805000 31.955400 857.968994 
166.490997 101.346001 831.900024 
85.004898 162.675003 785.075012 
150.503998 114.152000 822.593994 
73.349503 87.473900 820.867004 
17.931601 140.514999 794.822021 
117.266998 136.182999 802.458008 
200.576004 68.829697 868.625000 
114.406998 75.811096 826.554993 
147.246994 29.595600 858.674988 
97.928596 128.561996 794.853027 
111.060997 27.660900 864.533997 
151.082993 18.454399 870.697998 
37.428200 168.007004 758.474976 
119.151001 70.941498 829.770996 
86.283997 48.550800 858.607971 
128.371994 35.458099 853.750000 
141.662003 17.046000 872.390015 
46.479801 135.117004 782.520996 
47.380699 108.495003 819.763977 
159.845993 76.875801 834.101013 
28.874399 137.488998 783.901001 
112.186996 90.573303 817.793030 
72.686798 76.834503 832.268982 
167.522003 92.884003 831.221985 
185.459000 27.649300 864.075989 
131.209000 43.543900 848.036987 
51.429401 176.199005 761.025024 
178.580002 95.266998 850.418030 
144.761993 117.414001 819.007996 
40.484600 144.500000 774.572021 
173.869995 80.917900 837.606995 
151.660995 91.764999 824.278015 
43.925900 150.098007 770.513977 
198.809006 72.236603 867.611023 
201.584000 69.361099 871.523987 
201.789993 67.965103 870.632019 
201.852997 66.363503 869.640015 
204.789993 63.265598 873.861023 
204.787003 61.922401 872.976990 
204.893005 59.742901 872.119995 
207.688995 57.990700 876.645020 
192.798004 79.235100 861.763977 
197.677002 72.753403 865.559021 
196.841995 73.104401 864.122009 
200.764008 66.595100 867.703003 
199.867004 66.802299 866.234009 
203.492996 59.556801 869.721985 
202.175995 60.312801 867.935974 
204.742004 57.609100 871.094971 
204.479996 55.633400 870.151001 
193.710999 74.820000 859.424988 
196.319000 68.141701 861.098999 
201.582993 58.469002 866.741028 
186.048996 86.773102 856.081970 
187.490005 82.784103 853.356018 
196.033005 66.674004 860.439026 
197.143005 60.994598 861.453979 
203.608994 50.648800 868.085999 
202.776993 49.931099 867.067993 
201.425995 47.218399 865.543030 
183.740005 88.629799 851.846985 
184.604004 84.502502 848.841980 
187.710999 78.079903 851.039001 
191.651993 69.237999 855.036987 
192.841003 63.942200 856.543030 
192.264008 62.296398 856.120972 
196.169006 60.347801 860.338989 
194.138000 54.992298 858.723999 
198.300995 53.059299 862.629028 
198.145996 50.538101 862.526001 
198.871994 47.974201 863.247009 
196.188995 48.238300 861.081970 
199.147003 45.224201 863.632019 
198.589996 42.820000 863.456970 
124.814003 11.103600 901.078003 
178.682999 94.215103 846.971985 
181.041000 90.936401 847.789978 
181.983002 86.020203 845.185974 
181.175003 86.138802 844.020996 
187.188995 72.327301 849.909973 
186.707001 70.531601 849.617981 
190.473999 58.600800 855.098999 
189.306000 62.051300 853.442993 
192.440002 51.924599 857.817993 
191.386002 55.257301 856.448975 
194.171005 45.195400 860.169006 
193.197006 48.617100 858.914978 
195.723007 42.120399 861.721008 
194.735992 35.757599 862.812012 
192.572006 34.756901 862.315002 
130.160995 6.117490 900.286011 
120.574997 13.728000 896.307007 
174.384995 99.564102 845.856018 
177.990005 89.952103 841.073975 
181.600006 79.587196 843.788025 
179.671005 79.204300 842.096985 
182.701004 73.347603 845.690002 
181.162994 73.206596 844.578003 
186.419998 68.740196 849.658997 
186.679001 60.766701 851.690979 
184.964996 59.068401 851.044983 
184.459000 61.396301 850.046021 
188.419006 55.535599 854.244995 
186.091995 52.577702 853.642029 
185.436996 55.913502 852.273987 
190.186005 48.779099 856.992004 
187.897995 46.334499 856.450012 
186.843002 49.271400 855.031006 
191.873001 42.060200 859.661011 
189.731003 42.342201 858.570984 
190.757996 35.781200 861.322021 
187.485992 34.382500 860.981018 
132.699997 5.766590 891.768982 
126.552002 9.403090 889.244019 
122.723999 11.381700 893.255005 
120.584000 12.966000 887.398010 
116.935997 15.870400 891.385986 
113.737000 18.024099 886.992981 
109.861000 21.614599 886.081970 
109.140999 22.107599 884.612000 
105.962997 26.483400 886.091003 
163.837006 109.828003 837.271973 
169.031006 103.835999 838.478027 
169.464005 102.442001 837.234009 
171.850998 98.488701 837.312012 
173.453995 93.917900 836.773987 
177.227005 88.800499 839.643005 
176.602005 85.023003 838.690002 
175.414001 84.097397 837.812988 
177.681000 78.913300 840.638000 
179.669998 73.228798 843.588013 
183.807999 62.818199 849.226990 
180.787003 62.879601 847.559021 
179.643997 60.716702 847.781006 
182.921997 56.717098 850.664978 
183.494003 49.274601 853.474976 
181.830994 47.978100 853.302979 
187.727005 43.235500 857.403015 
180.889008 37.868000 857.598022 
187.278000 30.968500 862.593018 
188.654007 30.078300 863.280029 
135.841003 4.517450 891.255981 
121.856003 12.424600 886.093018 
105.768997 25.949499 884.096985 
101.875000 29.375401 877.825012 
160.328995 113.113998 835.364990 
160.944000 112.044998 834.419983 
165.391006 104.420998 832.505005 
170.035004 93.897499 833.187012 
173.852997 88.858299 836.148010 
172.585999 88.482903 835.104004 
173.466003 83.390602 836.604004 
176.291000 78.621002 839.806030 
174.550003 73.490601 840.802002 
177.666000 68.114403 844.281006 
178.768005 59.207600 847.965027 
178.595993 52.367199 850.455994 
176.697006 50.289299 850.716980 
177.268005 53.483898 849.593994 
181.533997 43.061600 855.255005 
179.927994 35.791500 858.526978 
178.014008 37.204102 857.338013 
180.445999 33.341900 860.059998 
180.576996 31.253700 861.354004 
180.832001 29.197001 862.666992 
180.895996 25.563700 864.955017 
177.511002 26.920000 863.844971 
141.337997 5.515230 886.526001 
144.205994 5.881880 885.273010 
139.246994 6.076420 886.460999 
137.063004 8.412880 883.742981 
130.876007 8.832990 885.729004 
130.179001 9.811740 884.078003 
129.509995 10.805900 882.455017 
123.678001 11.933800 884.520020 
123.195999 12.838000 882.367004 
122.847000 13.559500 880.859985 
117.546997 15.515200 882.900024 
118.535004 15.338400 881.364014 
109.873001 21.322901 880.869019 
109.404999 21.892700 879.344971 
154.975998 117.523003 832.697998 
155.987000 115.391998 830.447021 
154.709000 114.574997 827.543030 
161.830994 110.583000 833.689026 
161.908997 109.241997 832.021973 
164.936005 103.468002 831.263977 
164.164001 101.976997 829.755981 
166.481995 98.634201 830.903992 
165.932007 96.471703 830.116028 
169.906998 92.339401 832.947998 
169.264008 90.381599 832.565002 
168.167999 89.290100 832.049988 
170.319000 84.509300 834.424011 
171.330994 82.793999 835.534973 
167.367996 71.271202 839.372986 
171.046005 64.011398 843.692017 
169.647995 66.980904 842.049011 
168.406998 59.012798 845.205017 
170.664993 56.548401 846.671021 
169.912994 49.116199 849.726990 
167.807007 49.822498 849.049011 
177.233994 47.533298 852.039001 
176.632004 46.400902 852.388000 
171.481995 45.145100 851.882019 
175.240005 38.758301 855.924011 
171.880005 39.871700 854.684998 
174.809006 35.655499 857.664001 
175.154999 33.460499 859.117004 
173.514008 34.628201 858.094971 
173.503006 28.005400 862.700989 
171.175995 28.389799 862.150024 
174.403000 24.933100 865.046021 
175.154999 21.845501 867.315979 
172.001999 22.994699 866.406982 
145.470001 8.084980 882.531982 
137.065994 10.153900 881.276001 
138.813995 10.093100 881.081970 
118.384003 17.229099 876.606995 
118.375999 18.016300 875.017029 
112.948997 20.670300 875.023010 
113.863998 20.795500 873.612976 
105.389000 25.862600 876.231018 
100.543999 30.835600 872.466003 
97.541901 34.283001 876.046021 
94.023201 39.280701 876.127991 
89.773201 44.365398 873.047974 
89.696098 43.622200 871.140991 
89.839996 42.835098 868.711975 
85.903198 49.293999 870.388977 
149.876999 120.844002 829.763000 
153.233002 112.912003 824.505005 
151.740005 116.314003 825.614014 
159.737000 108.593002 828.612976 
158.212997 108.071999 826.726013 
162.598999 101.877998 828.362976 
162.524002 99.612297 827.903992 
165.091995 94.662399 829.539978 
164.005997 92.642197 829.161011 
161.677994 89.828201 828.752991 
160.727005 93.346802 827.400024 
163.451004 86.191803 830.695007 
161.949005 87.421700 829.661011 
168.880005 82.138298 834.572998 
165.735001 72.416298 838.317017 
163.632996 72.112900 837.927979 
165.923004 65.234299 842.021973 
163.828003 62.384899 842.942993 
162.854004 65.361397 841.362000 
161.397995 60.015400 843.603027 
160.813995 56.892300 844.888000 
158.149994 59.068001 843.505981 
167.065994 56.163300 846.159973 
165.436005 49.982800 848.614014 
163.567001 47.059200 849.721008 
169.880005 46.748901 850.823975 
168.408005 44.745998 851.556030 
166.112000 42.100899 852.554993 
165.057007 45.024101 850.916992 
169.779007 38.586899 855.054016 
168.334000 36.683300 855.950989 
167.317993 39.273102 854.268982 
169.671005 33.880501 857.968994 
169.572998 28.659901 861.742981 
168.735001 22.096300 867.041016 
148.386993 10.678200 879.424988 
150.514999 11.297500 878.580017 
146.880997 10.311600 879.956970 
135.292999 12.099000 878.867981 
136.740997 13.123600 877.366028 
127.208000 13.779000 877.971985 
124.724998 16.330000 874.630005 
118.443001 18.867399 873.413025 
113.751999 23.312300 869.182983 
107.675003 26.767401 868.739990 
107.815002 27.761200 866.796997 
97.922501 33.964100 868.521973 
93.636299 38.176300 868.403992 
94.222000 37.718498 867.096008 
90.275101 42.203300 866.304016 
90.926201 41.755299 864.263000 
86.097000 48.293301 868.739014 
149.434006 119.254997 826.085999 
148.914001 117.105003 823.067017 
147.731003 116.837997 821.598022 
151.925995 111.990997 822.765991 
156.871994 107.626999 825.323975 
157.143997 101.712997 824.513000 
155.697998 101.250000 823.663025 
161.328003 97.755501 827.083984 
159.988007 96.794197 826.422974 
157.447998 93.985497 825.793030 
154.936996 91.227402 825.690979 
154.110992 94.662102 824.189026 
159.084000 87.373596 828.643005 
156.757004 84.782997 829.008972 
155.757996 87.892799 827.307983 
163.453995 82.677803 832.172974 
163.666000 79.280602 833.929993 
160.223007 80.908203 831.986023 
165.660995 79.227898 834.630981 
160.518005 73.561203 836.255981 
157.264999 71.684998 836.530029 
157.557007 74.792503 834.692993 
160.255997 66.848602 840.065979 
156.352005 65.015701 840.218994 
157.028000 68.344803 838.489990 
155.078995 58.166698 843.403015 
160.104996 54.759602 845.719971 
159.556000 53.139500 846.364990 
156.151001 51.377701 846.698975 
162.132004 45.986900 850.049011 
163.759003 39.548500 853.586975 
161.699997 37.325802 854.570007 
161.007004 39.529598 853.226013 
166.048996 34.187401 857.185974 
163.695007 32.245098 858.172974 
162.636002 34.592098 856.401001 
161.811005 24.583000 864.369019 
163.087006 25.880699 863.286987 
165.522995 21.104700 867.844971 
150.511993 13.697300 876.062988 
153.681000 12.602500 876.945007 
144.985001 15.830800 873.856018 
138.153000 14.216900 875.906982 
138.679001 15.266700 874.578979 
131.294998 15.237000 874.906006 
131.447006 16.103399 873.698975 
129.988998 17.948299 871.348999 
131.535004 19.528400 869.254028 
113.670998 24.299200 867.716003 
113.563004 25.646000 865.862976 
113.378998 27.197399 863.934998 
108.656998 29.325100 863.747986 
101.738998 32.768002 864.344971 
95.466499 36.729801 866.210999 
92.321800 40.724899 862.898010 
87.756798 46.160999 860.867004 
83.181503 51.732399 864.314026 
84.012398 50.630001 861.013000 
140.354996 126.287003 823.033020 
144.397995 123.056999 824.229004 
143.744995 120.458000 820.020020 
150.647995 110.865997 821.278992 
150.949997 108.672997 820.987000 
151.987000 106.616997 821.434021 
153.617996 100.828003 822.562988 
152.837006 97.489899 822.830017 
150.625000 94.909203 822.687988 
148.182007 91.989601 822.931030 
146.942001 95.347198 821.096985 
152.362000 88.563301 825.887024 
149.656998 89.457397 824.573975 
157.625000 82.195396 830.531982 
154.511002 82.056000 829.676025 
156.315994 75.709198 833.781982 
153.231995 76.652000 832.320007 
153.858002 69.987900 836.661987 
150.490005 68.165100 836.866028 
150.488998 71.407700 834.789978 
153.320999 64.076103 840.049011 
151.076996 61.913799 840.703003 
150.483002 64.981796 838.818970 
153.136002 55.978699 844.091003 
152.069000 58.847000 842.507019 
153.173996 53.449699 845.288025 
154.522003 44.451801 849.879028 
158.809998 40.664799 852.340027 
156.862000 39.502602 852.747986 
155.048004 38.144299 853.322998 
159.613998 35.240299 855.577026 
157.682007 29.758699 859.265991 
155.781006 30.755800 858.276978 
159.582993 28.796600 860.289001 
162.188004 27.614201 861.635986 
162.233002 21.937599 866.968994 
158.744003 23.049801 865.674988 
162.809998 19.347000 869.507019 
161.164001 18.355600 870.528015 
157.320007 11.487900 877.596008 
156.438995 13.952600 875.307983 
152.005005 16.927401 872.431030 
145.141998 17.079599 872.372986 
143.737000 19.282900 869.689026 
147.483994 18.963699 870.114014 
137.554993 17.378500 871.919006 
136.311005 19.197800 869.638000 
124.447998 20.762100 868.408997 
122.740997 21.818300 867.414001 
125.282997 22.067801 866.645020 
121.027000 22.641899 866.812012 
120.156998 24.997999 864.215027 
119.598000 27.778299 861.307983 
122.934998 26.417601 862.125977 
110.163002 29.271299 862.926025 
102.827003 32.918301 862.953979 
98.033699 36.468399 862.044983 
98.500900 37.300598 860.164978 
93.501602 39.960800 862.099976 
93.480003 42.430302 857.619995 
88.861702 45.460201 859.536011 
88.789703 46.452000 857.505981 
89.019600 47.348499 855.489990 
83.213402 51.918701 859.401978 
82.278603 53.401001 858.093994 
84.001701 52.138901 855.789001 
79.871498 56.514900 861.291992 
80.924202 55.190601 858.114014 
75.693604 63.200100 857.388000 
139.662994 123.734001 817.898987 
139.007004 122.723999 816.276978 
139.662003 120.603996 815.721985 
139.503998 118.778000 814.885010 
138.363998 117.155998 813.695007 
144.356003 113.894997 817.331970 
143.014999 113.856003 816.367004 
146.320999 110.165001 818.098999 
149.880005 106.704002 820.099976 
148.279999 105.307999 819.221008 
148.091003 102.014000 819.578979 
147.154007 100.691002 819.450989 
145.748993 98.785500 819.418030 
143.483002 95.212097 819.918030 
140.393005 94.452599 819.286011 
146.759003 88.769501 823.940979 
145.378006 85.671204 825.075012 
143.259995 88.010696 823.237976 
152.304001 82.447800 828.817993 
149.990997 82.605698 828.049011 
150.953003 76.706596 831.619995 
148.957001 77.038597 830.841980 
148.419006 72.330803 833.588989 
145.634995 72.138603 832.914001 
147.074005 74.174400 832.034973 
147.264999 66.170700 837.216980 
144.531998 64.052200 837.802979 
148.479004 59.425701 841.437012 
146.061996 56.379002 842.520020 
144.753998 59.546398 840.515015 
151.352005 53.486698 844.971985 
147.778000 53.381699 844.396973 
151.757996 46.095798 848.702026 
149.591995 46.583099 848.171997 
151.871002 42.835300 850.424988 
149.158997 41.538502 850.848999 
152.690994 36.346699 854.172974 
152.373993 35.204800 854.861023 
152.677002 29.179899 859.281006 
155.763000 24.589800 863.883972 
152.985992 26.153099 862.094971 
155.175003 21.775200 866.895020 
154.649994 19.331200 869.638977 
151.787994 20.845400 867.893982 
153.526993 17.325600 871.927979 
149.324005 20.170500 868.672974 
149.059006 21.612600 866.955994 
147.522003 23.621401 864.604980 
143.231995 20.546900 868.143005 
126.654999 22.938000 865.471008 
126.494003 25.379900 862.812988 
125.472000 27.717300 860.539978 
126.165001 30.274599 858.117981 
116.627998 29.241800 860.489990 
119.335999 30.533199 858.627014 
111.922997 32.603100 858.380005 
112.997002 33.823898 856.835999 
105.994003 33.575699 859.802979 
104.533997 33.181999 861.213013 
100.010002 36.990299 859.281982 
89.927803 47.597698 853.903015 
90.809097 49.252300 850.773987 
84.254799 53.342602 852.763977 
83.148102 55.614899 850.706970 
85.916702 53.702400 849.773010 
79.206703 58.688202 853.556030 
75.031799 64.345497 854.255005 
73.813103 66.353996 853.028992 
75.089996 64.596802 851.960999 
72.627403 68.316200 853.853027 
131.347000 133.350006 819.593994 
132.261002 132.240005 818.401978 
136.106003 128.186996 818.086975 
135.231995 123.324997 812.862976 
134.306000 122.237999 811.732971 
133.190994 120.424004 810.629028 
132.231995 119.239998 810.005005 
136.897995 115.488998 812.671997 
142.414001 112.435997 815.812988 
142.149002 105.053001 816.293030 
141.578003 103.181999 816.500000 
139.533005 101.995003 816.116028 
137.865005 100.121002 816.263977 
137.330002 102.292999 815.343994 
137.412003 93.300301 819.049988 
137.348999 96.588898 817.552002 
139.878006 86.834900 822.922974 
139.214005 85.020103 823.737000 
146.703003 83.134697 826.799988 
144.985992 83.118401 826.312988 
146.147003 75.833199 830.760010 
142.876999 77.215500 829.068970 
143.720993 70.487900 833.455017 
140.852997 68.675400 833.908020 
140.352997 71.348297 832.065979 
143.328003 62.339199 838.544983 
142.460999 64.149101 837.215027 
142.000000 60.517101 839.320007 
138.651993 58.821098 839.625000 
143.501999 53.948299 843.309021 
141.505005 54.099201 842.859009 
147.395004 46.988098 847.659973 
145.350006 45.094601 848.429016 
144.298004 46.148102 847.700989 
147.449997 39.248299 852.008972 
145.992996 42.021801 850.252014 
145.559998 36.993000 853.254028 
145.039001 34.422798 854.932983 
142.397995 36.459301 853.414001 
146.983994 32.338402 856.505005 
152.425003 27.452299 860.799011 
150.688995 28.740601 859.536987 
146.177002 26.061800 861.950989 
147.203995 27.010500 861.015015 
139.957001 26.565500 861.385986 
138.207993 27.455601 860.497009 
133.738998 24.082199 863.939026 
133.013000 26.136801 861.793030 
132.675995 28.721500 859.309021 
135.837006 27.959801 860.004028 
134.539993 32.374401 856.169983 
126.592003 32.817600 855.906982 
118.875999 32.181999 857.168030 
118.431999 33.365799 856.169983 
111.852997 35.778000 855.244995 
110.037003 37.243900 854.306030 
113.205002 37.442001 853.431030 
106.963997 37.107700 855.388000 
99.694901 41.716900 853.627991 
101.400002 41.449799 853.078979 
96.549103 44.962399 851.758972 
96.614197 46.425400 850.129028 
91.406601 50.587200 848.732971 
92.004303 52.033798 846.804016 
87.274200 54.208000 847.716003 
86.934799 55.919800 845.973022 
87.074402 57.261902 844.383972 
69.751602 72.940399 847.945007 
127.267998 136.011993 816.002014 
131.460999 129.723007 812.903992 
130.792007 128.707993 811.315002 
128.050003 124.316002 807.632996 
127.394997 126.612999 807.497009 
127.646004 122.169998 807.367004 
125.953003 119.021004 806.992981 
124.314003 121.685997 805.768005 
135.313004 113.875999 811.945007 
132.695007 111.906998 811.195007 
138.718002 109.078003 814.106995 
134.634995 104.176003 813.986023 
132.384003 106.265999 812.716003 
129.929001 98.184898 815.474976 
129.315994 100.306999 814.463013 
131.160995 92.661797 818.205017 
130.313004 96.030197 816.497986 
135.496994 90.629501 819.953003 
132.001007 91.233398 819.034973 
138.873001 82.815201 824.877991 
136.815002 83.946503 823.791016 
138.261993 80.502296 826.054016 
139.337006 78.006203 827.747009 
136.160004 79.078796 826.450012 
139.862000 74.904900 829.726990 
136.645004 72.546303 830.523010 
133.240997 70.727501 831.094971 
133.240005 73.984398 829.031006 
139.820999 65.747704 835.568970 
135.977005 60.713501 837.989990 
134.322998 61.185600 837.426025 
136.384003 51.927299 843.286987 
133.953003 54.129601 841.684021 
136.587006 50.230000 844.309021 
137.531998 48.495998 845.453003 
135.863998 48.148201 845.471008 
140.878998 47.299500 846.588989 
139.016998 41.494801 849.901978 
139.871994 39.913300 850.981018 
141.190002 38.201000 852.187012 
138.104004 30.696800 857.585999 
136.432007 33.044601 855.668030 
144.843994 32.038502 856.655029 
143.865997 30.470699 857.872986 
148.585999 27.867500 860.234985 
137.673996 29.291201 858.794006 
134.936996 37.833500 852.094971 
125.699997 33.882801 855.067993 
119.430000 35.751301 854.002014 
116.664001 38.058800 852.398010 
120.307999 39.035801 851.301025 
113.967003 39.712502 851.361023 
112.488998 42.078899 849.598022 
107.664001 39.343498 852.942993 
105.135002 41.566799 851.557983 
108.735001 41.811798 850.429016 
102.563004 43.927502 850.119995 
100.084999 46.389000 848.637024 
103.691002 46.500702 847.427979 
97.506500 48.986401 847.166992 
95.389000 51.650200 845.546021 
98.962402 51.465401 844.450989 
93.214104 54.444302 843.906006 
90.492798 57.652000 842.151978 
94.908798 57.059799 841.070007 
89.496101 61.551701 839.036987 
82.590500 60.021400 844.921997 
82.577103 62.328201 841.989014 
79.896896 61.232300 846.557007 
77.691704 64.679604 844.189026 
77.756104 65.751297 842.338013 
68.604797 75.590698 841.372009 
69.423897 75.114799 839.906982 
67.243599 76.920601 846.559021 
64.587997 81.577400 845.216980 
126.468002 132.865997 809.583008 
123.154999 127.545998 804.789978 
123.211998 122.908997 805.067017 
127.035004 117.112000 807.864014 
128.149994 115.172997 808.767029 
129.697006 112.121002 810.135010 
126.286003 112.166000 809.151001 
131.231995 109.068001 811.508972 
129.401001 106.149002 812.098022 
127.667999 103.216003 812.984009 
126.007004 106.085999 811.505981 
126.069000 100.676003 813.880981 
123.713997 91.866600 817.823975 
123.318001 94.949303 816.276978 
129.300003 89.942101 819.333008 
128.007996 86.612000 820.950012 
125.828003 89.423599 819.242004 
134.628998 84.041100 823.314026 
133.251007 80.689003 824.997009 
130.410995 83.451797 822.995972 
133.080994 77.270302 826.994019 
130.345001 75.302498 827.812012 
127.032997 74.385002 828.028015 
132.656998 67.449600 833.130981 
129.770996 69.221703 831.601013 
131.057007 64.380798 834.916992 
131.455994 62.598099 836.124023 
128.936996 63.975601 834.940979 
131.138000 59.589001 838.007019 
130.781006 56.554901 839.862000 
127.828003 58.384499 838.442017 
130.074005 52.921101 842.033997 
129.667999 49.630001 844.044983 
126.544998 51.587002 842.638000 
132.475998 47.158600 845.783020 
133.901993 41.917000 849.257019 
127.757004 41.468399 849.343018 
127.546997 44.083599 847.544983 
127.295998 38.493500 851.473022 
124.331001 40.209301 850.252991 
121.204002 42.380299 848.752014 
118.410004 44.587101 847.232971 
122.094002 45.216599 846.724976 
117.667999 47.177700 845.390015 
114.403999 48.688499 844.380981 
117.649002 49.568600 843.721985 
109.846001 44.456902 847.992004 
107.300003 46.847900 846.401001 
110.987000 47.510201 845.440979 
104.803001 49.152302 844.953003 
102.464996 51.537601 843.510986 
105.946999 51.825802 842.705994 
100.292000 53.970402 842.090027 
98.463203 56.545700 840.546997 
101.464996 56.157501 840.239014 
96.838097 59.304100 838.836975 
98.312798 61.472099 836.981995 
91.165604 63.467800 836.901978 
89.267700 65.863197 835.398987 
92.500801 66.049698 834.543030 
83.810699 63.904301 839.361023 
84.598000 65.305000 837.531006 
80.745796 64.641998 840.674988 
78.896797 67.286003 838.986023 
78.779701 68.551697 837.539001 
73.648903 72.155296 837.773010 
68.500397 77.351303 837.010010 
66.762199 78.475098 839.338013 
60.362400 88.891998 839.601013 
121.768997 137.026001 807.742981 
119.561996 133.393005 803.335999 
122.191002 126.235001 804.226990 
115.919998 124.001999 801.817993 
115.158997 126.192001 800.934021 
118.335999 118.739998 804.434021 
116.294998 120.903000 802.994995 
121.005997 115.313004 806.549011 
119.572998 116.925003 805.507019 
124.380997 109.069000 809.942993 
122.862999 112.212997 808.291992 
122.526001 106.013000 810.984009 
120.634003 103.121002 812.093018 
119.021004 105.955002 810.494019 
118.806999 100.761002 813.036011 
118.088997 98.040199 814.315002 
115.792000 100.307999 812.942993 
120.195999 95.897003 815.557007 
117.032997 94.858101 815.830017 
116.023003 91.420197 817.543030 
113.096001 93.908897 816.043030 
122.089996 89.198502 819.068970 
120.439003 86.212898 820.564026 
118.386002 88.777000 819.070984 
126.019997 83.078201 822.723022 
123.167000 79.895203 824.354980 
122.188004 83.339401 822.276001 
120.056000 78.342697 825.119995 
118.999001 75.867401 826.616028 
117.722000 77.919296 825.296997 
124.141998 73.101799 828.609985 
127.300003 67.956200 832.174011 
126.320999 65.776497 833.520996 
124.413002 68.070297 831.880005 
125.353996 62.829300 835.380005 
125.891998 60.268902 837.081970 
125.112000 58.551998 838.130981 
122.194000 56.540600 839.255005 
123.398003 49.862598 843.622009 
123.124001 48.030899 844.823975 
121.186996 50.020100 843.461975 
128.834000 46.537800 845.968994 
125.407997 45.892101 846.289001 
118.956001 52.237400 841.937988 
117.603996 54.659302 840.309021 
119.316002 54.447399 840.494995 
111.402000 50.505299 843.190002 
108.237999 51.935699 842.375000 
111.347000 53.601299 841.028015 
104.199997 57.075100 839.206970 
107.313004 57.954498 838.328003 
100.375000 61.766998 836.476013 
94.786301 65.943398 834.242004 
81.294998 69.927299 834.515991 
84.847603 70.473999 832.656006 
73.874901 73.082703 836.117004 
74.168999 73.957703 834.640991 
69.837601 80.094002 830.645020 
72.936302 79.592697 828.801025 
66.911201 78.840500 837.671021 
63.631901 83.291801 837.286987 
58.814602 91.370102 835.648987 
113.960999 145.436005 808.127991 
116.450996 139.718994 803.726990 
118.011002 131.779007 801.911011 
116.352997 130.141998 800.882019 
114.760002 128.408997 800.301025 
108.143997 125.271004 798.968018 
106.775002 127.880997 797.526001 
113.329002 121.334000 801.981018 
111.043999 118.519997 802.726990 
109.632004 121.744003 800.882019 
113.360001 114.467003 805.228027 
111.456001 116.060997 804.047974 
119.134003 111.966003 807.594971 
117.288002 108.814003 808.802002 
115.439003 111.570999 807.090027 
115.502998 105.806999 810.072998 
113.795998 102.860001 811.390991 
111.921997 105.570000 809.710022 
112.179001 99.817398 812.820007 
110.615997 96.540802 814.439026 
108.244003 99.374397 812.658997 
109.375999 93.046700 816.273987 
108.417000 89.508102 818.223999 
105.709999 91.811401 816.778992 
114.800003 88.155197 819.237000 
113.832001 84.986603 820.979004 
111.200996 87.249298 819.607971 
118.473999 83.655502 821.900024 
116.390999 82.862900 822.283020 
112.513000 79.144798 824.434998 
121.031998 73.353401 828.283997 
117.875999 73.442703 828.125000 
122.652000 70.750397 830.033020 
120.727997 68.188698 831.616028 
118.717003 65.614098 833.231995 
117.151001 68.432198 831.359009 
118.945999 64.174004 834.177979 
116.679001 61.348900 835.953003 
114.041000 55.548500 839.682983 
110.634003 56.831902 838.893982 
109.636002 60.048698 836.838013 
111.629997 61.156799 836.067017 
101.954002 62.879601 835.526001 
103.309998 64.192902 834.510010 
96.420403 65.927200 834.023010 
98.758797 67.564697 832.570984 
100.714996 68.553596 831.706970 
91.672699 70.916000 830.895020 
94.885002 71.721397 829.916016 
86.236298 69.868896 832.789978 
77.129997 74.436501 831.989990 
76.038696 77.613800 829.224976 
79.362396 76.325104 829.142029 
74.352501 79.858299 827.731995 
75.189400 82.256798 825.039001 
67.142197 81.143097 832.440002 
65.886703 82.367401 832.468994 
64.655800 83.608200 832.624023 
61.275600 87.562500 833.601013 
111.119003 141.703003 799.283997 
110.239998 143.263000 799.275024 
113.869003 136.276993 799.745972 
112.646004 135.328003 798.771973 
110.894997 133.906006 797.744019 
109.014000 132.423996 797.007019 
106.970001 131.154999 796.468994 
103.944000 128.893005 796.278015 
100.685997 126.950996 796.343018 
101.003998 130.235001 794.827026 
105.809998 121.757004 800.039978 
103.867996 118.827003 801.187012 
102.167999 121.469002 799.471985 
108.788002 116.160004 803.500977 
106.858002 113.567001 804.572021 
105.399002 116.177002 802.892029 
111.911003 111.242996 806.663025 
110.130997 108.297997 807.979004 
108.429001 110.967003 806.257019 
108.259003 105.362000 809.328979 
106.208000 102.358002 810.750977 
104.535004 105.269997 808.870972 
104.143997 99.293098 812.291992 
101.722000 96.311600 813.859009 
100.139999 99.615799 811.697998 
101.980003 90.876297 817.177979 
102.905998 93.659103 815.539978 
107.425003 86.322403 820.041992 
106.946999 82.782097 822.151978 
103.747002 85.171097 820.674988 
113.079002 81.881699 822.778015 
109.828003 80.755402 823.414001 
106.563004 79.330597 824.289001 
103.348999 77.880302 825.244995 
110.056000 74.605301 827.312012 
115.278999 71.671402 829.229004 
113.708000 68.792198 831.096008 
111.029999 67.392303 832.033020 
113.052002 62.049301 835.474976 
105.324997 65.178703 833.705994 
108.205002 67.048798 832.330017 
102.471001 69.576500 830.882996 
102.315002 71.416000 829.619019 
95.453201 73.034500 828.908997 
95.131203 74.949600 827.567017 
87.394096 75.736000 827.812988 
86.939499 77.697502 826.382996 
85.447197 79.307297 825.353027 
87.856598 79.618301 824.866028 
82.223503 80.573799 824.818970 
82.608902 83.652100 822.374023 
81.495598 84.803101 821.606995 
84.344704 84.812500 821.356018 
72.176003 84.611603 823.945984 
75.603600 84.770897 822.643982 
68.301003 84.759300 826.101013 
70.052399 84.627602 825.020020 
61.773998 88.623703 828.914978 
58.381302 92.795799 828.804993 
106.614998 150.242996 802.046997 
104.367996 152.492004 802.101013 
109.426003 144.761002 799.414001 
108.088997 138.867996 796.101990 
101.088997 133.078003 793.632996 
98.360001 131.699997 793.354980 
95.203697 130.001007 793.392029 
95.647903 133.195999 791.791016 
99.947601 123.612000 797.919006 
97.331299 125.439003 796.416992 
99.158203 120.282997 799.551025 
102.013000 116.095001 802.344971 
100.052002 113.679001 803.348022 
99.169998 116.603996 801.562012 
104.932999 110.864998 805.755981 
102.910004 108.111000 806.999023 
101.404999 110.912003 805.148987 
100.775002 105.313004 808.318970 
98.531197 102.511002 809.729980 
96.983704 105.466003 807.697021 
96.192101 99.764801 811.223999 
93.796700 97.128197 812.773987 
92.291496 100.056999 810.700989 
96.135002 91.799500 816.401001 
95.204597 94.249603 814.762024 
101.064003 87.766701 819.057983 
98.387100 90.035599 817.593018 
99.753304 84.397102 821.146973 
98.227997 81.038597 823.312988 
95.684502 83.959702 821.481995 
102.429001 76.773102 825.987976 
100.211998 78.426102 824.958008 
108.640999 73.620399 827.965027 
107.976997 68.577797 831.323975 
102.304001 73.315903 828.315002 
94.445801 76.721901 826.377014 
97.008400 78.496902 825.026001 
85.821297 86.133797 820.306030 
87.881599 84.163803 821.617004 
78.104103 86.311302 820.854004 
70.141502 89.075600 820.437012 
63.533600 89.770699 824.031006 
64.995300 89.155800 823.403992 
60.025101 93.384300 823.002014 
52.956299 100.849998 824.041992 
49.103500 106.664001 825.362000 
49.242401 106.055000 822.945984 
102.152000 154.009995 800.434998 
101.101997 153.199997 796.924011 
99.713402 155.707001 798.754028 
106.928001 148.757004 800.145020 
102.373001 150.688995 795.929016 
105.281998 143.761002 794.958984 
101.857002 138.908005 792.385010 
100.801003 137.531998 792.104980 
95.752998 136.492996 790.312988 
95.422501 138.643005 789.400024 
93.206902 134.496002 790.374023 
89.987099 133.994995 789.732971 
94.851799 127.140999 794.942993 
93.061302 128.358002 793.836975 
94.043198 124.170998 796.469971 
93.188202 120.987999 798.083008 
90.696503 123.117996 796.426025 
92.332100 118.943001 799.059021 
91.996101 116.700996 800.250000 
89.785301 118.005997 799.142029 
92.830101 114.783997 801.479004 
94.035004 111.366997 803.668030 
90.236198 111.887001 802.788025 
97.829803 111.128998 804.424988 
95.500801 108.430000 805.661987 
93.140999 105.690002 807.059021 
90.762703 102.996002 808.588989 
89.204201 105.970001 806.445984 
88.388000 100.362999 810.234009 
85.994698 97.810997 811.947998 
84.501198 100.685997 809.844971 
91.430702 94.572502 814.385986 
89.201897 91.997101 816.109985 
87.414101 94.749901 814.153015 
94.902603 89.468201 817.895996 
93.369698 86.709702 819.715027 
91.224297 89.287399 817.991028 
89.335899 81.156303 823.650024 
91.617401 84.009804 821.565002 
87.267998 89.129898 818.122986 
80.662399 91.601997 816.515991 
74.666901 92.790100 816.119995 
73.805298 94.128403 815.161987 
67.238403 93.859001 816.929016 
65.880203 95.395599 815.942017 
60.240002 94.199402 821.364990 
58.842201 94.955597 822.148010 
54.998501 100.116997 819.075012 
56.358398 99.323601 818.306030 
49.589298 105.570999 820.984009 
48.337002 107.862999 815.770020 
45.763699 111.141998 822.034973 
95.195801 157.479996 793.299011 
96.639000 154.076996 791.867004 
95.685699 155.923996 792.249023 
99.354797 143.330002 790.685974 
95.244102 140.182999 788.880981 
86.412498 139.037003 786.038025 
87.635201 133.365997 789.518005 
89.682899 128.341995 793.101990 
88.204102 125.180000 794.736023 
86.059097 127.431999 792.932983 
87.184700 121.911003 796.474976 
87.286697 120.058998 797.559021 
87.359703 118.108002 798.690979 
87.616302 109.060997 804.244019 
86.120697 112.278000 802.017029 
85.167397 106.242996 805.927979 
82.934196 103.519997 807.749023 
81.317902 106.358002 805.638000 
80.663200 101.010002 809.549988 
78.354797 98.635300 811.351990 
76.867897 101.348000 809.333984 
83.532600 95.400002 813.658997 
81.077400 93.097504 815.388000 
79.842697 95.901703 813.353027 
72.546600 96.985703 813.020020 
76.102798 96.342903 813.198975 
63.175800 97.076302 815.424011 
66.493301 96.776199 814.409973 
61.808201 96.838699 816.463989 
50.932899 105.930000 814.330994 
52.509399 104.763000 814.080994 
49.106400 107.624001 814.151978 
43.515800 113.254997 816.568970 
39.161301 119.149002 817.338013 
91.425201 161.968994 794.197021 
92.141602 156.684006 788.650024 
82.337799 142.095001 783.434021 
84.791199 144.889999 783.148987 
84.189201 138.119003 785.916016 
85.248497 132.871002 789.301025 
83.836098 129.800995 791.004028 
81.605301 132.037003 789.158997 
82.230301 126.342003 792.921997 
81.500801 124.321999 794.052979 
81.126297 122.714996 794.976013 
80.568802 117.205002 798.275024 
82.273102 112.403999 801.526001 
80.810898 111.486000 802.010986 
79.221802 108.786003 803.797974 
77.078400 111.111000 802.023987 
77.533302 106.271004 805.596985 
75.529602 103.957001 807.357971 
74.150703 106.327003 805.534973 
73.003601 101.848999 809.090027 
70.619904 102.750000 808.513000 
64.882500 102.139999 809.817993 
68.147400 103.245003 808.315002 
55.077099 105.966003 809.681030 
49.077801 110.363998 808.486023 
50.482399 109.349998 808.635986 
45.394699 111.856003 811.685974 
46.111801 111.778000 810.122986 
41.677200 115.738998 810.369995 
42.188202 115.653000 808.831970 
33.035000 125.057999 811.156982 
33.738800 123.916000 808.984985 
87.586601 161.940994 787.593994 
87.479301 160.699005 786.356995 
87.049698 158.893997 784.804993 
91.433098 155.897003 787.476990 
89.339897 149.300995 784.562988 
89.129204 151.296005 784.468018 
86.648300 147.626007 783.280029 
83.820503 148.153000 781.895996 
80.364799 148.259003 780.492004 
82.722702 151.466995 780.838013 
81.850502 140.102997 784.291016 
80.574898 142.386993 782.835022 
80.773804 137.145996 785.755981 
79.556801 134.315994 787.338989 
77.850098 136.266998 785.809998 
77.897202 131.445999 788.956970 
76.006599 128.350998 790.664978 
74.127602 131.251999 788.544006 
74.203499 125.674004 792.083984 
74.023804 123.807999 793.231995 
71.146004 124.949997 792.104980 
74.596802 121.718002 794.643005 
78.789398 116.806999 798.315979 
76.661003 116.416000 798.343994 
74.648499 110.532997 802.331970 
73.223701 108.580002 803.778992 
71.797600 110.458000 802.302002 
71.048401 106.554001 805.393005 
69.173698 104.475998 807.182983 
67.879097 106.934998 805.195007 
62.521801 104.473999 808.130981 
61.877399 106.123001 806.679016 
60.847000 107.886002 805.202026 
64.467003 107.433998 805.039001 
57.397202 108.530998 805.518005 
51.825298 112.865997 803.031982 
47.244400 111.778999 808.255981 
42.865200 115.858002 806.742004 
43.664101 116.220001 804.783020 
38.575901 119.657997 806.054993 
37.465199 120.393997 807.056030 
31.224600 126.505997 805.523010 
32.794701 124.953003 805.544006 
28.807600 129.408997 807.559998 
29.883200 127.970001 806.627991 
86.172897 157.093994 783.353027 
85.345497 155.065002 782.333008 
84.080299 153.356995 781.442017 
75.559196 153.171997 777.206970 
78.507004 155.925995 778.211975 
78.662498 147.354004 780.192993 
74.766800 136.822006 784.989014 
70.345001 131.378006 787.948975 
72.605202 134.026993 786.533020 
68.027199 123.662003 792.530029 
68.344101 126.511002 790.744019 
68.840599 120.162003 794.982971 
67.350899 121.616997 793.828003 
69.603500 111.219002 801.669006 
66.783302 109.445000 803.137024 
65.697601 112.249001 800.853027 
59.130100 110.593002 802.973022 
57.251701 113.049004 801.025024 
61.493401 112.549004 800.838989 
55.632900 115.413002 799.111023 
52.699100 116.705002 798.570007 
55.793098 117.737999 796.927979 
49.935799 113.789001 802.940979 
47.145599 116.202003 801.625977 
50.191898 115.778000 800.456970 
44.431099 116.531998 803.374023 
41.094398 120.321999 800.577026 
34.641998 123.893997 802.854004 
36.010799 123.344002 801.403992 
31.449900 127.843002 798.286011 
33.471199 127.503998 795.919006 
25.982300 131.904007 801.687988 
28.166000 129.945007 800.283997 
79.480301 164.737000 780.364990 
79.278503 163.552994 779.655029 
81.175499 158.505997 779.919983 
80.127602 157.464005 779.132996 
73.077698 159.791000 774.882019 
74.821503 161.149994 775.879028 
75.201302 151.529999 777.517029 
73.797600 150.716003 777.265015 
69.888901 138.063004 783.487000 
69.339302 141.102005 781.359985 
71.175697 136.785995 784.517029 
68.390404 137.061005 783.966003 
68.395302 129.089996 789.132996 
65.403297 127.975998 789.453003 
62.117901 126.440002 790.096985 
62.037102 129.477005 788.107971 
65.166100 122.446999 793.056030 
62.210300 120.739998 794.125000 
61.996399 123.667000 791.982971 
67.160500 117.666000 796.650024 
64.278801 115.075996 798.580994 
63.005199 117.952003 796.288025 
55.771099 120.099998 794.843994 
58.975601 119.107002 795.442993 
49.106098 120.945999 795.299988 
51.193001 121.449997 794.307007 
45.108002 120.294998 797.624023 
47.117401 120.470001 796.484985 
42.369598 120.768997 798.752014 
42.460602 122.262001 796.614014 
40.898499 123.630997 795.736023 
42.923000 123.759003 794.453979 
35.473000 126.369003 795.831970 
37.546799 125.264999 795.780029 
32.134201 130.572006 791.726013 
35.108601 130.070999 790.275024 
28.887100 130.235992 796.771973 
26.900101 132.363998 794.926025 
29.587099 130.901001 793.918030 
25.506001 132.479004 802.767029 
74.105202 167.389008 776.405029 
73.933701 164.266006 775.513000 
71.125397 165.567993 773.682983 
70.237503 163.600998 773.044983 
72.142700 155.707001 775.090027 
70.127602 154.533997 774.593018 
69.842300 152.985001 775.026978 
70.522301 146.412994 778.291992 
68.705902 144.039993 779.322998 
68.164803 146.102005 777.934021 
65.855301 141.942993 780.236023 
64.110199 142.783997 779.364014 
63.036301 136.880005 783.369995 
61.338001 135.701004 783.939026 
59.939899 136.789993 782.987000 
62.063301 132.533005 786.138000 
58.721100 130.608002 787.007019 
55.411800 128.690002 788.065002 
55.367298 131.759003 785.864990 
59.209999 125.061996 790.854980 
53.511101 121.879997 793.556030 
50.743099 127.370003 789.062012 
53.129601 127.947998 788.546997 
44.618301 124.264000 793.177002 
41.714699 128.973999 788.838989 
44.016102 129.210999 788.065002 
36.695801 129.317001 790.401001 
38.331600 128.533005 790.609009 
33.345600 134.085999 785.864014 
35.482300 133.617004 785.507019 
28.539801 134.975006 787.734985 
31.382500 135.192993 785.471008 
24.492500 133.867996 796.554016 
24.178600 133.901001 798.198975 
19.282700 139.192993 797.758972 
19.531000 138.815994 795.669006 
71.472000 173.626999 777.026001 
66.295700 166.667007 770.565002 
67.687798 168.158005 771.520020 
69.906303 161.246994 773.030029 
65.204903 155.613998 772.431030 
64.573303 154.070999 772.848022 
66.812103 147.522003 776.794983 
62.179199 143.473007 778.546997 
58.827599 141.955002 779.078003 
59.002998 144.932999 776.926025 
56.190102 136.184998 782.851990 
57.524101 139.084000 780.973999 
52.846401 132.819000 784.843994 
54.956200 133.212997 784.791016 
48.064301 129.412003 787.424011 
46.155899 129.578003 787.416016 
44.877499 134.037994 783.411987 
39.134399 133.164993 784.903992 
42.089100 134.039001 783.546997 
36.902500 135.445999 783.018982 
35.585499 136.878006 781.870972 
38.301300 137.470001 780.754028 
29.856001 139.227997 781.232971 
32.108101 138.455002 781.247986 
25.698900 135.317001 790.067993 
24.355101 135.901993 790.773010 
18.097700 140.473007 792.802979 
16.915899 142.186996 797.851990 
16.033001 142.893005 796.296021 
69.019096 177.972000 778.213989 
60.936401 169.389999 767.205017 
59.884800 171.473007 766.431030 
64.853798 164.938004 769.885010 
65.026802 162.921997 770.297974 
62.011600 159.149994 769.997986 
59.485500 156.819000 770.039978 
60.382900 159.436996 769.297974 
59.827000 155.223007 770.870972 
59.062901 147.992004 774.815979 
55.861000 146.209000 775.408020 
52.539200 144.164993 776.310974 
52.630600 147.240005 774.051025 
55.726200 140.582001 779.570007 
53.195900 141.175995 778.690002 
50.771500 137.031998 781.437012 
48.544201 135.455002 782.398010 
48.239799 137.175003 781.010986 
43.419102 135.356995 782.260986 
41.775299 137.421005 780.505005 
45.110199 137.356003 780.601990 
40.077702 139.701004 778.609009 
38.420601 142.237000 776.481018 
42.121700 142.095993 776.617004 
31.653500 143.906998 775.594971 
34.712700 142.953003 776.106995 
28.034599 139.904999 781.241028 
24.483999 139.966003 783.333008 
22.106400 139.559006 786.284973 
21.131599 139.557999 787.619019 
16.250000 143.828003 785.301025 
16.017300 142.554001 792.500000 
11.107300 147.824005 792.551025 
64.473099 180.834000 774.879028 
63.233501 177.425995 770.244019 
58.965000 173.244003 765.804993 
58.945000 175.214996 765.893005 
54.741699 170.229996 763.831970 
59.106701 166.712997 766.664001 
59.187698 165.067001 767.091003 
59.508999 162.742996 767.875000 
52.703999 160.819000 766.187988 
52.476101 164.343994 764.700989 
52.496498 156.220001 768.335999 
52.792198 158.529007 767.250977 
52.498299 150.473007 771.783020 
51.957901 153.184998 769.939026 
49.690498 148.313004 772.744019 
46.213402 147.776001 772.575989 
49.577000 141.916000 777.534973 
47.177101 139.533997 779.049988 
45.768002 142.119003 776.877991 
44.289700 144.623001 774.760010 
42.318401 147.110001 772.594971 
38.491402 146.783005 772.570984 
40.308300 149.281998 770.664001 
37.306599 144.404999 774.609009 
32.187099 148.317001 771.104004 
32.114101 150.585999 768.945007 
27.979799 144.205994 776.096985 
30.318001 146.065002 773.543030 
25.658899 144.671005 776.281982 
23.294399 144.815994 777.081970 
24.026300 146.110992 775.039978 
20.259501 144.005005 780.174988 
17.339399 146.488998 778.258972 
15.255400 147.738007 777.781006 
17.233000 147.675995 776.310974 
14.079700 145.313004 785.398010 
11.937000 146.867996 785.383972 
8.603360 149.376999 785.544006 
7.135500 150.587997 786.338013 
7.695750 150.182007 784.143982 
55.876999 187.813995 772.046997 
58.984299 183.843002 770.405029 
59.047100 182.656006 769.179016 
57.929100 177.315002 765.434998 
53.021801 175.335007 762.064026 
54.061798 168.197006 764.041992 
53.138302 165.942001 764.370972 
46.603901 164.612000 762.734985 
46.792198 168.139999 761.330017 
45.570099 158.865005 765.223022 
44.914501 161.906006 763.512024 
49.329601 154.544006 768.531982 
41.044399 150.960999 769.456970 
30.959900 151.931000 767.668030 
28.363400 151.667007 767.890991 
28.535200 148.229004 771.445007 
26.408199 148.641998 771.302002 
27.670799 149.945007 769.689026 
23.200600 147.591003 773.419006 
15.747500 151.132996 771.695984 
13.077100 148.660995 778.104004 
12.251900 149.932007 776.317017 
6.918200 151.145004 788.718018 
7.000650 151.625000 790.411011 
50.487999 191.908997 767.567017 
54.360901 181.764008 763.525024 
49.437801 174.287003 760.327026 
44.888802 168.585999 760.518982 
42.569302 168.063995 760.012024 
43.230099 163.134995 762.487000 
40.040199 161.798004 762.366028 
41.469501 164.641006 761.301025 
43.453701 157.535995 765.484009 
41.100700 156.809006 765.424988 
37.222900 155.934006 765.257996 
38.853298 158.781006 763.770020 
35.003201 156.136002 764.739014 
32.902500 156.294006 764.304993 
33.125599 158.201004 763.007996 
25.860901 152.315002 767.357971 
23.061399 152.776993 767.166016 
25.384899 154.156998 765.549011 
17.756201 151.740005 769.866028 
20.065001 151.871002 768.893005 
50.445599 185.492004 760.867004 
49.316799 184.087997 759.419983 
49.022900 182.014999 759.013977 
47.363800 184.063995 757.747986 
48.656700 178.384995 759.056030 
48.717201 175.199997 759.739014 
44.291000 173.869003 758.140015 
42.955002 174.408005 757.367004 
40.789501 166.820007 760.062988 
34.527302 165.084000 759.219971 
33.949001 167.207993 757.885986 
36.700699 160.908005 762.072998 
33.778702 160.033005 761.958008 
34.990898 161.779007 761.187012 
