ply
format ascii 1.0
comment Created by CloudCompare v2.10.3 (Zephyrus)
comment Created 07.02.22 20:35
obj_info Generated by CloudCompare!
element vertex 1937
property float x
property float y
property float z
end_header
147.601 48.3257 846.978 
146.916 49.1162 846.457 
147.96 49.19 846.577 
149.7 49.1262 846.87 
143.022 43.5884 849.018 
142.657 44.2775 848.572 
145.406 48.0684 846.794 
149.828 38.3128 852.761 
142.531 34.2923 854.921 
149.609 32.9864 856.167 
155.083 28.3088 860.226 
151.963 31.244 857.587 
151.28 30.9913 857.735 
144.907 23.001 865.273 
145.895 23.0613 865.218 
145.641 22.4581 865.912 
145.889 24.2222 863.91 
144.885 24.2499 863.867 
145.541 24.7698 863.307 
142.194 25.519 862.479 
141.48 25.9974 861.978 
140.989 27.2028 860.769 
141.864 27.537 860.457 
132.086 24.5512 863.449 
130.783 25.4751 862.507 
130.554 26.2922 861.682 
131.519 25.9805 861.973 
131.265 27.5331 860.448 
131.526 29.0616 859.017 
130.596 28.8543 859.226 
130.917 29.7107 858.446 
131.746 32.0194 856.458 
132.013 31.3267 857.032 
123.434 31.0551 857.627 
124.239 30.5853 857.976 
123.432 30.3237 858.284 
125.418 31.4795 857.104 
125.55 32.073 856.585 
121.507 31.9748 857.007 
120.994 30.5484 858.36 
121.75 30.2495 858.538 
116.535 32.4017 857.383 
109.114 35.3907 856.418 
106.801 36.3109 856.293 
101.792 40.3375 854.1 
102.499 39.6785 854.488 
101.48 39.7392 854.922 
100.355 39.9055 855.346 
99.4909 40.0893 855.649 
95.7828 43.5207 853.973 
96.4236 43.2132 853.89 
94.2843 46.4099 851.548 
94.3598 46.9757 850.843 
95.1936 47.0671 850.227 
91.8834 49.7835 849.313 
90.9284 51.3837 848.168 
87.1791 52.2685 850.342 
87.8344 51.966 850.053 
88.1612 54.4917 846.663 
87.2652 55.0443 846.725 
89.2697 52.5958 847.989 
82.3072 57.287 849.31 
83.2616 56.7786 848.694 
82.9166 56.4689 849.678 
80.3563 57.7092 852.479 
80.5528 57.1754 853.208 
76.5184 63.1346 850.383 
76.5714 62.7051 851.525 
75.9308 63.6084 851.294 
73.098 67.6995 850.715 
72.3277 68.7906 852.078 
71.8845 69.5252 851.351 
72.5084 68.5606 850.996 
69.7072 73.2455 851.494 
126.312 136.162 813.968 
129.871 131.4 812.498 
130.292 131.677 813.439 
133.106 128.781 814.174 
133.075 128.016 813.431 
132.804 127.476 812.698 
128.904 130.3 810.351 
128.478 126.923 808.39 
128.238 126.126 808.014 
128.898 121.453 808.091 
129.691 121.647 808.542 
130.317 123.343 809.042 
130.039 122.559 808.786 
134.837 117 811.501 
133.526 115.724 810.896 
136.256 111.295 812.718 
136.183 112.294 812.54 
137.055 112.092 812.962 
134.611 112.086 811.897 
137.319 109.912 813.387 
137.271 108.175 813.7 
135.843 105.626 813.867 
136.056 106.753 813.618 
136.828 105.98 814.076 
135.055 102.38 814.718 
135.897 101.942 815.083 
134.888 101.427 815.031 
133.156 101.75 814.53 
132.473 102.568 814.074 
133.458 102.682 814.239 
130.82 100.827 814.472 
131.751 100.609 814.72 
132.186 99.7532 815.152 
136.341 98.0784 816.687 
135.515 96.5505 817.156 
134.674 95.9268 817.261 
134.589 96.8534 816.834 
132.01 96.326 816.612 
132.885 96.8805 816.507 
136.965 91.2015 819.974 
137.988 89.6382 821 
137.299 88.7941 821.279 
136.922 89.6585 820.748 
134.49 88.1439 821.053 
135.216 88.9263 820.777 
135.58 88.0367 821.317 
134.004 89.9305 820.029 
140.239 82.6616 825.291 
141.031 81.2287 826.293 
137.214 79.7717 826.254 
137.189 80.5279 825.81 
141.378 75.0782 829.976 
141.702 78.4142 828.072 
140.954 72.8557 831.251 
140.845 73.6956 830.7 
141.766 73.451 831.073 
137.742 70.4201 832.096 
137.629 71.3289 831.49 
138.563 71.0618 831.854 
135.107 70.5694 831.503 
135.875 70.9974 831.365 
135.904 70.1816 831.895 
138.783 67.8759 833.961 
138.047 66.0917 834.964 
136.948 65.7457 834.97 
137.304 66.7585 834.382 
138.578 63.7186 836.598 
137.63 64.1833 836.109 
138.667 64.7088 835.985 
136.758 61.8621 837.412 
136.678 62.7342 836.848 
137.65 62.3305 837.287 
134.786 63.3319 836.136 
135.603 63.0943 836.426 
136.616 57.4327 840.093 
137.705 57.7198 840.106 
137.391 56.7853 840.604 
135.075 55.3405 841.107 
135.31 56.2622 840.591 
136.107 55.591 841.105 
136.51 54.0395 842.073 
138.81 51.5982 843.819 
139.319 50.2982 844.64 
136.911 45.9546 846.923 
136.017 45.6936 846.996 
141.619 48.8985 845.776 
141.422 49.8914 845.186 
142.546 49.5493 845.55 
143.615 48.3001 846.404 
142.79 47.6665 846.64 
139.298 45.0034 847.758 
140.139 45.6984 847.437 
140.373 44.7423 848.034 
139.036 46.9853 846.538 
138.049 46.4278 846.757 
138.181 47.3675 846.206 
144.694 41.599 850.367 
143.904 41.0703 850.606 
140.879 42.9964 849.143 
141.232 42.429 849.524 
138.667 37.6129 852.427 
138.614 39.2874 851.3 
140.081 35.6058 853.888 
141.234 35.6431 853.914 
140.76 34.7755 854.507 
139.494 36.3799 853.319 
138.046 33.8549 855.089 
138.497 34.7111 854.469 
139.17 33.8762 855.108 
139.084 32.3601 856.261 
147.265 30.4743 857.953 
142.06 32.1707 856.481 
142.277 32.7197 856.067 
142.374 30.6597 857.692 
147.881 28.7748 859.399 
148.358 29.4033 858.872 
148.833 28.7864 859.418 
138.968 29.3632 858.745 
136.664 25.6806 862.256 
138.471 29.9103 858.26 
137.899 30.0344 858.146 
134.39 34.6138 854.427 
133.539 34.3815 854.589 
135.516 34.9442 854.205 
136.629 35.2481 854.013 
136.351 34.3038 854.705 
127.457 35.1741 853.984 
127.907 34.6006 854.425 
127.904 33.1811 855.564 
128.484 33.8077 855.045 
128.94 32.9696 855.714 
121.187 35.3005 854.208 
122.26 35.4605 853.993 
121.893 34.5886 854.734 
117.016 36.8018 853.402 
117.663 36.2976 853.746 
117.65 39.965 850.769 
118.495 39.3849 851.157 
117.563 39.2274 851.36 
120.952 37.5995 852.379 
121.785 36.9768 852.814 
120.729 36.7678 853.056 
114.588 36.9555 853.62 
113.803 42.6498 848.992 
114.397 43.3815 848.362 
114.966 42.5661 848.952 
103.689 40.2161 853.405 
96.5813 48.4592 848.07 
95.6283 48.4267 848.559 
96.1633 49.6891 847.06 
91.7934 53.8829 845.08 
90.859 54.0366 845.419 
90.9002 56.0331 843.469 
91.5487 55.2701 843.881 
90.5717 55.3353 844.295 
92.8171 58.7383 840.337 
93.2898 57.9311 840.858 
92.2538 58.0843 841.079 
94.4902 55.1108 842.827 
88.5756 58.1217 842.619 
87.4499 60.7456 840.638 
87.5334 60.2034 841.123 
82.569 58.8135 846.616 
83.0922 57.9746 847.168 
82.108 58.4901 847.702 
80.7774 59.874 847.457 
77.0574 63.9163 846.876 
77.6083 63.3869 846.766 
75.7494 66.6869 843.974 
75.6715 66.3586 844.805 
75.9229 67.1147 842.851 
76.7394 66.6563 842.33 
69.2548 74.5716 842.173 
69.9274 73.7257 842.302 
69.3599 74.1837 843.181 
70.933 73.2196 840.577 
70.509 73.3846 841.326 
65.8019 79.2478 844.02 
65.5276 79.6955 843.254 
125.692 128.85 806.75 
122.527 120.147 805.374 
122.96 119.685 805.662 
121.035 122.004 804.318 
121.931 121.995 804.683 
126.017 116.446 807.671 
126.1 117.302 807.465 
127.965 116.933 808.266 
127.726 96.8857 815.789 
128.785 95.627 816.492 
127.893 95.0189 816.677 
127.797 96.0056 816.204 
125.145 95.2288 816.304 
126.014 95.8229 816.105 
126.094 94.8045 816.596 
125.24 93.32 817.233 
133.359 93.3579 818.21 
129.521 87.6853 820.545 
130.545 87.7862 820.623 
125.382 87.0273 820.469 
126.335 87.2484 820.436 
127.091 90.6644 818.725 
134.637 85.4564 822.531 
134.187 86.4218 821.923 
135.287 86.3571 822.16 
136.313 86.3021 822.392 
130.1 80.7843 824.494 
130.584 81.7397 824 
131.251 80.9978 824.521 
131.968 84.5569 822.591 
132.482 85.5047 822.143 
133.033 84.6738 822.69 
130.822 78.8854 825.708 
131.865 79.4025 825.544 
131.762 78.5199 826.052 
130.135 77.4098 826.503 
130.959 77.1069 826.791 
128.468 76.6999 826.742 
128.267 75.9023 827.209 
126.364 75.9084 827.024 
125.405 76.3341 826.681 
126.291 76.8029 826.468 
133.838 68.3438 832.731 
134.006 69.3039 832.135 
134.863 68.7745 832.621 
134.372 66.9193 833.745 
135.44 67.1844 833.756 
135.068 66.1916 834.336 
134.086 63.7363 835.763 
134.224 64.4756 835.308 
131.743 57.4665 839.402 
127.933 56.4059 839.699 
131.742 52.7467 842.284 
132.694 52.9622 842.245 
128.488 54.9454 840.656 
129.516 55.2443 840.554 
129.354 54.3617 841.087 
132.473 56.1979 840.264 
133.47 56.553 840.168 
133.284 55.6395 840.698 
130.779 50.6653 843.477 
131.716 50.8379 843.445 
127.246 52.7412 841.949 
127.364 53.684 841.365 
128.264 53.1362 841.767 
134.273 46.7307 846.192 
133.943 45.0321 847.239 
132.785 44.774 847.323 
133.068 45.6696 846.768 
133.204 43.2584 848.333 
132.176 42.0823 849.057 
129.371 41.3678 849.444 
130.353 41.9199 849.093 
130.428 40.9563 849.757 
128.459 37.9164 851.896 
129.433 37.8051 851.983 
128.822 37.146 852.468 
124.87 38.6649 851.381 
124.739 37.9733 851.905 
128.57 40.0955 850.321 
129.349 39.6176 850.672 
128.316 39.3694 850.838 
122.131 38.7086 851.45 
123.108 39.0065 851.181 
122.996 38.1363 851.846 
118.822 41.0768 849.827 
119.864 41.289 849.61 
119.657 40.4623 850.245 
118.719 43.3605 848.121 
119.392 42.7219 848.565 
118.342 42.5756 848.721 
117.079 44.0145 847.707 
116.603 43.2649 848.297 
116.027 44.0731 847.718 
111.773 44.0127 848.114 
112.693 44.0955 847.953 
112.345 43.2872 848.634 
111.593 46.0732 846.501 
112.275 45.5505 846.849 
111.384 45.4019 847.048 
94.376 59.1868 839.516 
93.1931 61.2792 838.16 
96.9144 60.7378 837.758 
97.1833 61.3601 837.253 
92.6114 62.7526 837.126 
93.5486 62.7848 836.889 
85.7986 64.6184 837.662 
85.0601 64.4515 838.153 
84.6057 61.9029 841.027 
76.5508 68.908 839.154 
76.4588 68.4395 839.936 
76.7437 69.5219 838.105 
77.0147 70.0799 837.121 
77.5964 69.3343 837.556 
73.5347 71.5471 838.933 
73.9368 70.8228 839.571 
73.0267 71.5101 839.821 
70.6304 75.873 835.95 
67.0022 77.4313 842.905 
66.8073 77.8198 842.113 
66.2848 78.5845 842.073 
62.5759 84.8985 841.954 
62.9791 84.238 842.741 
120.64 138.623 808.078 
121.353 138.392 808.857 
118.319 136.101 803.359 
121.691 129.37 804.03 
122.281 129.872 804.49 
120.982 127.564 803.528 
120.043 127.901 803 
120.863 128.652 803.469 
121.088 123.712 803.977 
119.793 124.864 803.195 
119.495 125.977 802.883 
120.468 125.726 803.386 
117.256 124.524 802.18 
117.878 125.335 802.253 
118.158 124.263 802.611 
117.588 126.295 801.937 
119.571 119.757 804.445 
120.543 119.811 804.754 
122.328 116.233 806.562 
123.231 116.247 806.828 
121.915 118.008 805.807 
124.149 112.977 808.297 
122.859 102.196 812.804 
124.027 96.5857 815.556 
123.814 97.6024 815.056 
124.888 97.2184 815.34 
122.253 96.3936 815.489 
117.487 92.6292 817.003 
118.319 92.7285 817.007 
130.281 85.204 821.995 
129.661 85.994 821.48 
130.758 86.1793 821.521 
128.379 81.4884 823.879 
127.714 82.2222 823.382 
128.837 82.3566 823.428 
126.023 84.7767 821.762 
125.413 85.5693 821.267 
126.518 85.6357 821.332 
125.246 80.465 824.175 
125.942 81.2987 823.746 
126.356 80.4002 824.311 
123.636 84.0017 821.999 
124.541 83.8494 822.155 
124.559 78.7444 825.147 
125.439 78.2301 825.527 
124.485 77.7565 825.74 
122.687 77.718 825.64 
122.652 78.6143 825.092 
115.743 75.9209 826.504 
127.617 66.9686 832.849 
124.208 64.5914 834.149 
123.86 62.8873 835.243 
122.93 62.4487 835.475 
123.062 63.3911 834.867 
122.818 59.9406 837.097 
122.928 60.7029 836.609 
124.056 56.6981 839.252 
124.343 55.0093 840.347 
123.48 54.4467 840.663 
123.334 55.3423 840.081 
124.492 53.2523 841.477 
125.403 53.6713 841.257 
122.379 52.1105 842.124 
131.226 49.1978 844.418 
132.075 49.4225 844.343 
131.054 45.1788 846.958 
131.35 46.0499 846.413 
117.512 56.7037 838.975 
118.359 56.6154 839.055 
112.533 47.1342 845.614 
113.093 52.031 842.058 
106.873 54.0534 841.001 
103.601 59.4634 837.661 
103.536 58.6496 838.217 
102.665 59.0127 838.076 
105.224 58.4379 838.181 
92.3608 67.2125 833.659 
93.9979 67.8219 832.935 
86.3184 66.6185 835.618 
82.5925 68.4193 835.403 
83.6332 67.856 835.49 
82.7696 67.5951 836.135 
81.118 67.8343 836.768 
80.8043 68.6023 836.135 
82.5881 70.8666 833.06 
82.678 71.6321 832.321 
75.2254 70.5816 838.242 
75.791 71.5854 836.265 
71.9783 74.6976 835.975 
72.6959 75.5378 833.959 
70.1662 78.8419 832.022 
70.8331 78.0329 832.441 
69.8975 78.399 832.971 
71.9347 78.3674 830.97 
71.3139 79.0086 830.689 
72.036 78.906 830.225 
68.019 78.1177 836.46 
67.6888 78.1725 837.119 
65.3198 80.5221 838.905 
115.904 143.928 809.006 
120.435 137.603 806.643 
117.834 138.782 804.585 
117.583 138.041 803.755 
117.384 134.876 802.086 
117.006 133.104 801.417 
116.141 133.371 800.872 
116.808 134.152 801.467 
118.965 130.425 802.402 
119.838 130.088 802.922 
119.045 129.369 802.413 
118.295 128.725 802.004 
114.289 131.469 799.714 
113.669 129.741 799.595 
112.706 130.018 799.115 
113.553 130.785 799.4 
113.201 126.247 800.192 
114.113 126.616 800.425 
113.886 125.696 800.595 
112.162 128.163 799.287 
109.918 126.152 799.138 
110.503 127.165 798.979 
110.995 126.194 799.464 
109.039 127.873 798.251 
108.547 127.095 798.368 
112.386 119.059 802.76 
111.461 122.619 800.953 
118.563 116.044 805.612 
117.671 116.292 805.282 
118.417 116.899 805.207 
114.586 115.344 805.031 
114.931 116.31 804.636 
115.622 115.661 805.098 
114.323 116.91 804.214 
122.325 114.555 807.204 
123.184 114.641 807.402 
107.847 96.9 814.008 
108.327 97.7913 813.55 
108.941 97.0561 814.014 
110.979 92.7361 816.542 
111.912 92.8521 816.535 
108.154 95.2489 814.96 
109.232 95.4682 814.918 
108.915 94.5737 815.392 
106.695 93.2136 816.02 
106.847 94.0262 815.564 
107.644 93.4067 815.966 
117.63 91.1311 817.789 
118.64 91.3689 817.726 
117.665 81.0378 823.4 
114.645 78.6369 824.783 
117.76 75.2983 826.94 
121.143 62.6406 835.26 
121.344 65.1223 833.648 
118.439 61.8473 835.675 
119.043 62.5772 835.22 
119.592 61.7298 835.789 
119.341 60.0123 836.892 
118.464 59.2673 837.344 
118.136 60.2291 836.713 
120.218 56.3338 839.302 
119.409 56.5872 839.108 
119.911 58.0408 838.187 
120.803 58.7434 837.771 
120.998 57.7622 838.412 
114.812 57.0494 838.705 
114.688 57.8362 838.193 
115.703 57.4449 838.458 
112.886 57.6171 838.336 
113.071 56.8589 838.828 
112.15 57.0585 838.709 
112.858 53.7214 840.909 
106.783 60.0474 836.993 
107.678 59.7764 837.112 
108.483 62.0509 835.592 
108.544 61.0744 836.222 
107.523 61.571 835.952 
109.403 62.5289 835.244 
103.5 61.2387 836.479 
100.89 63.5754 835.161 
95.7216 64.1634 835.431 
97.7589 69.4211 831.328 
97.857 68.575 831.931 
96.8672 68.8472 831.83 
98.5882 69.9378 830.887 
91.8929 69.7486 831.762 
91.3693 69.2159 832.258 
93.9208 70.0579 831.256 
84.8337 71.3945 831.861 
87.4213 71.2778 831.339 
86.738 71.5035 831.3 
75.4033 76.6203 830.606 
75.6694 75.8467 831.297 
74.6382 76.3827 831.341 
78.2256 78.1035 827.878 
78.3268 77.4027 828.496 
79.4801 75.2094 830.147 
80.0924 74.4646 830.623 
78.9493 74.685 830.863 
71.9956 81.4686 827.307 
71.3954 81.4366 827.725 
73.5664 77.6901 830.554 
75.9233 80.8911 826.064 
76.964 81.7509 824.949 
77.9609 81.8977 824.56 
77.8097 81.095 825.3 
69.2931 81.3165 829.566 
68.564 82.0835 829.277 
69.5545 81.8384 828.66 
58.125 92.5607 834.54 
113.966 144.5 805.935 
115.085 140.661 802.895 
115.223 141.341 803.67 
113.343 138.493 799.95 
115.753 135.378 800.963 
115.127 134.686 800.366 
114.503 133.94 799.857 
110.908 136.903 797.785 
110.002 135.318 797.183 
109.167 135.53 796.706 
111.641 132.514 798.255 
112.588 132.148 798.775 
111.731 131.437 798.437 
110.902 130.8 798.168 
107.098 133.985 795.838 
106.306 132.38 795.863 
105.596 132.791 795.461 
106.317 133.368 795.618 
103.084 126.564 797.102 
110.094 123.462 800.242 
109.721 124.337 799.781 
110.77 124.32 800.08 
106.08 123.415 799.29 
105.617 124.221 798.805 
106.663 124.25 799.037 
104.094 123.371 798.881 
104.566 122.583 799.372 
110.784 114.823 804.568 
110.355 115.446 804.163 
114.993 113.902 805.829 
115.936 114.189 805.876 
105.65 98.4661 812.919 
106.706 98.4859 813.008 
106.154 97.6284 813.447 
104.836 101.51 811.076 
104.318 100.733 811.469 
103.358 96.9786 813.587 
103.996 97.7198 813.203 
104.429 96.862 813.744 
99.2488 97.2527 813.087 
99.9638 97.917 812.732 
100.304 97.2359 813.182 
101.748 100.083 811.577 
102.753 100.01 811.726 
104.032 82.7335 822.171 
104.257 83.6593 821.602 
105.042 83.0546 821.975 
104.922 86.1777 820.081 
105.771 86.5219 819.891 
107.992 79.177 824.385 
104.751 81.226 823.105 
105.721 81.5986 822.873 
105.639 80.713 823.423 
107.108 77.0666 825.73 
107.183 77.9771 825.146 
108.045 77.5222 825.433 
110.878 75.6916 826.608 
110.832 76.3562 826.18 
115.839 73.2418 828.219 
113.826 70.6916 829.858 
112.581 67.1848 832.15 
113.515 66.6786 832.476 
112.518 65.4039 833.311 
111.399 65.045 833.559 
111.62 65.9711 832.953 
115.376 59.2872 837.262 
116.223 59.8579 836.907 
116.457 58.9212 837.516 
111.055 63.2529 834.728 
112.033 63.5775 834.501 
113.134 63.872 834.3 
112.797 63.0694 834.82 
106.325 63.7508 834.593 
107.385 63.3753 834.782 
106.504 62.9159 835.132 
104.915 62.2289 835.694 
101.502 69.1778 831.217 
104.877 70.72 829.99 
95.64 70.8315 830.497 
96.6105 70.5828 830.589 
95.7241 70.0139 831.09 
98.0534 71.8089 829.591 
97.4635 71.2583 830.028 
97.6114 74.6663 827.605 
89.8912 72.2538 830.127 
90.8738 72.7253 829.627 
90.9009 71.9108 830.243 
90.0108 76.4619 826.947 
90.3709 75.5358 827.588 
89.2489 75.8833 827.46 
84.4091 76.7432 827.505 
83.767 76.3282 827.966 
84.2119 77.421 826.998 
83.8639 77.896 826.68 
79.9535 77.9843 827.464 
81.0021 77.4354 827.667 
80.0835 77.1802 828.138 
81.6304 79.525 825.77 
81.7927 78.6706 826.442 
80.7335 79.1935 826.231 
79.8176 81.4478 824.534 
80.676 80.8638 824.852 
79.7255 80.6237 825.245 
79.8548 83.4873 822.858 
72.7255 83.4029 824.903 
73.6978 85.9058 822.17 
76.3796 83.0802 823.928 
68.4723 83.8133 827.127 
69.1172 83.1167 827.444 
68.1113 83.3885 828.005 
70.0281 82.9419 826.943 
58.0806 92.9907 829.773 
58.118 92.7875 830.64 
57.589 93.6097 830.345 
55.4204 97.0968 831.945 
51.2904 103.596 828.159 
108.706 143.36 797.792 
109.34 142.853 798.147 
102.044 125.184 797.539 
100.066 95.7591 814.079 
99.4329 95.0383 814.487 
99.064 95.8452 813.957 
97.5063 95.4046 814.136 
101.462 83.8608 821.475 
102.489 84.0574 821.352 
102.194 83.1459 821.918 
102.48 87.2498 819.396 
99.6606 82.0413 822.639 
100.061 82.8633 822.111 
100.74 82.1218 822.572 
95.4628 81.6146 823.024 
95.88 82.452 822.461 
96.5338 81.7458 822.902 
97.1792 84.8471 820.885 
98.1702 84.8655 820.863 
104.843 75.5751 826.73 
105.043 76.1578 826.343 
109.241 75.4779 826.747 
109 76.2967 826.218 
106.509 74.7419 827.252 
107.052 75.1435 826.981 
109.318 68.9309 831.055 
100.451 73.3113 828.397 
99.6063 72.8107 828.787 
99.5044 73.7707 828.125 
99.6872 71.9318 829.398 
104.102 73.49 828.139 
92.5723 75.1095 827.669 
92.1988 75.9031 827.134 
91.8058 76.7979 826.531 
92.9202 76.5788 826.592 
93.0748 78.8769 824.983 
93.2866 77.9711 825.593 
92.2454 78.291 825.445 
83.6575 87.7612 819.221 
83.2766 87.2374 819.629 
81.0024 86.8889 820.057 
80.0813 86.4447 820.491 
78.7682 87.6973 819.661 
78.4712 88.5807 819.001 
79.516 88.2587 819.142 
76.1892 86.1879 821.297 
75.7049 85.6821 821.832 
75.2319 86.3942 821.331 
75.5162 87.7986 820.081 
76.3776 88.3805 819.446 
76.7207 87.4888 820.119 
69.9051 86.4466 823.169 
71.6631 85.8494 822.952 
70.8451 86.4833 822.681 
71.8935 86.5467 822.19 
71.6496 89.6176 819.431 
72.1213 88.841 819.993 
70.0107 90.4433 819.195 
66.5825 86.3853 825.562 
67.4753 86.3929 824.788 
67.4793 85.7824 825.528 
65.7234 88.2598 823.918 
66.5871 87.677 823.932 
65.6792 87.6999 824.687 
64.7203 87.872 825.435 
64.0086 88.0884 825.972 
60.9723 91.6564 824.525 
59.6023 91.3858 828.374 
59.3744 91.3042 829.528 
58.9982 91.9743 828.884 
52.1004 102.079 827.418 
52.7229 101.105 827.676 
52.3805 101.751 828.349 
52.9539 100.705 825.867 
50.5335 104.588 826.814 
47.6846 108.674 824.052 
47.7112 108.378 823.029 
47.7768 108.094 821.894 
48.2494 107.49 822.618 
99.0973 155.321 796.727 
99.6019 155.228 797.507 
106.791 149.554 801.1 
107.405 148.895 801.139 
105.025 149.564 798.304 
103.424 144.097 793.603 
103.711 145.099 794.107 
104.212 144.23 794.245 
106.054 141.482 795.028 
103.82 138.563 793.506 
98.4817 138.462 790.801 
98.0937 136.715 791.154 
97.8433 138.745 790.435 
89.9527 135.339 788.975 
89.2598 136.018 788.414 
90.3977 136.325 788.591 
93.2383 127.394 794.446 
94.5685 120.684 798.501 
94.9666 119.028 799.48 
94.5194 117.867 800.039 
94.5527 115.445 801.396 
95.129 116.251 801.044 
94.8647 117.144 800.501 
94.091 113.9 802.196 
94.9428 113.664 802.475 
91.8734 110.297 803.99 
91.5807 110.991 803.524 
92.5529 110.886 803.729 
90.5693 113.422 801.914 
90.2242 114.26 801.367 
91.2229 114.148 801.587 
90.8028 106.569 806.217 
91.3979 107.255 805.841 
86.5152 92.7471 815.563 
87.1351 93.5162 815.021 
87.4753 92.7026 815.599 
100.071 80.542 823.59 
100.92 80.6502 823.504 
90.6377 80.3641 824.116 
91.7427 80.0741 824.245 
90.9525 79.4611 824.724 
90.2661 78.9362 825.145 
92.0686 81.6099 823.175 
90.9932 81.7529 823.133 
91.6498 82.3352 822.702 
94.2109 83.1183 822.074 
93.7327 82.3158 822.624 
93.1666 83.1009 822.121 
85.6924 88.1902 818.828 
84.3108 89.4196 817.982 
84.7651 90.3155 817.32 
85.4588 89.5983 817.821 
80.1931 90.4088 817.44 
80.1753 89.5854 818.066 
79.2165 89.9391 817.871 
72.258 92.2886 816.943 
72.7305 91.6044 817.427 
71.7022 93.2169 816.267 
71.2406 94.1129 815.598 
72.3425 93.8913 815.579 
69.9884 92.9837 816.874 
65.3665 93.1552 818.484 
66.474 93.0772 818.021 
66.2194 92.3447 818.904 
63.9478 94.6242 817.664 
64.5319 94.0088 818.013 
65.383 90.432 821.53 
60.6828 94.6908 820.129 
57.4907 95.15 824.748 
58.0934 94.4113 824.907 
59.3872 95.9643 819.732 
62.171 92.2657 821.972 
57.111 97.043 821.312 
56.7108 98.4702 819.287 
55.5317 98.7788 820.909 
54.9926 99.1815 821.277 
50.2719 104.584 823.187 
50.9012 103.726 822.759 
50.7277 103.94 823.908 
51.2781 103.523 820.653 
51.1094 103.578 821.555 
50.5234 104.771 818.883 
42.5127 115.167 819.394 
98.1324 156.73 797.495 
96.6939 157.84 796.737 
101.03 151.619 795.104 
100.105 153.509 795.81 
99.7272 153.067 794.811 
99.2184 154.126 795.253 
97.6538 153.895 792.934 
98.0016 154.349 793.797 
98.4532 153.241 793.365 
97.4387 155.462 794.213 
98.2572 144.61 790.047 
98.8868 145.217 790.513 
94.2486 142.249 787.969 
95.1088 142.754 788.319 
93.1245 138.592 788.511 
93.1824 140.712 787.842 
86.8423 140.009 785.717 
88.8066 133.654 789.628 
88.4634 132.739 790.097 
89.3844 130.365 791.778 
86.7889 125.443 794.305 
87.9508 129.496 792.011 
88.3289 128.814 792.52 
86.152 123.741 795.213 
84.7153 120.544 796.854 
85.6546 122.074 796.112 
85.0368 122.612 795.687 
87.1857 116.114 799.825 
86.2218 116.225 799.621 
86.961 116.926 799.315 
89.2853 109.678 804.037 
89.9318 110.379 803.676 
90.2935 109.596 804.214 
85.1106 110.045 803.347 
85.8108 110.759 802.951 
86.1819 109.947 803.517 
87.8295 112.916 801.833 
88.5149 113.656 801.477 
88.8708 112.816 802.034 
87.6144 105.35 806.724 
87.1163 104.549 807.237 
84.8549 108.505 804.354 
85.9303 108.432 804.495 
85.3142 107.712 804.93 
89.0299 108.201 804.956 
90.093 108.19 805.084 
89.3726 107.531 805.431 
82.6814 107.027 805.226 
83.2086 107.777 804.732 
83.6963 107.018 805.293 
85.7065 94.2707 814.474 
85.1323 93.5783 814.969 
86.9896 90.4062 817.222 
86.4247 91.2158 816.652 
87.5409 91.2248 816.642 
83.735 92.5025 815.757 
83.3929 91.8403 816.245 
81.7844 90.8276 817.041 
82.9381 90.9271 816.924 
82.4336 90.0307 817.603 
71.5483 95.4914 814.384 
64.4381 98.229 813.712 
68.7958 95.918 814.566 
58.287 98.6913 816.975 
58.2554 98.0681 817.907 
57.5062 98.7567 817.73 
52.835 103.53 816.023 
51.7365 105.243 814.357 
46.829 109.627 814.959 
46.5537 109.763 815.803 
47.2777 109.451 813.871 
47.7843 109.303 812.858 
48.1208 108.682 813.756 
40.7388 116.996 817.341 
40.6754 117.373 818.194 
92.3698 160.94 793.962 
93.6029 158.26 791.874 
93.4682 158.775 792.326 
95.753 152.579 790.052 
95.1754 153.652 790.024 
95.9379 153.461 790.697 
86.8517 143.761 784.302 
86.4082 136.705 787.258 
86.698 135.32 788.123 
82.3051 130.094 790.541 
83.6928 126.153 793.296 
81.4717 128.41 791.482 
82.0393 127.808 791.963 
85.4241 129.373 791.578 
85.9197 128.868 791.997 
79.2261 125.407 793.011 
80.7071 126.563 792.526 
79.6156 126.305 792.511 
79.999 127.131 792.052 
83.1546 121.681 795.926 
79.0191 121.603 795.337 
78.867 122.463 794.782 
79.7459 122.303 795.014 
84.7093 119.165 797.664 
85.8668 117.99 798.529 
84.9248 117.353 798.767 
84.7949 118.297 798.189 
83.0364 118.104 798.051 
83.0104 117.18 798.607 
86.363 113.819 801.09 
85.9076 114.644 800.528 
87.0392 114.577 800.719 
84.2393 113.78 800.854 
84.8197 113.106 801.345 
79.4142 113.383 800.621 
80.2597 113.673 800.504 
82.1206 113.537 800.775 
81.3762 114.046 800.371 
82.4713 114.346 800.296 
74.6652 100.328 810.2 
71.7401 100.072 810.608 
72.4841 100.724 810.02 
72.7602 99.9324 810.633 
69.6773 100.505 810.469 
70.528 100.275 810.563 
71.6839 98.6476 811.772 
72.6674 98.605 811.704 
72.368 97.9887 812.231 
65.739 98.8753 812.674 
66.6693 98.8849 812.422 
66.4217 98.2119 813.102 
65.7282 100.759 810.919 
66.2881 100.191 811.316 
65.3241 100.179 811.561 
67.7606 101.216 810.122 
66.8683 101.652 809.88 
67.6685 102.084 809.376 
59.9709 98.5428 815.718 
60.6612 98.6402 815.127 
62.5344 98.1608 814.597 
61.6499 98.7569 814.412 
62.6627 98.8179 813.843 
53.1518 104.858 813.059 
51.08 106.961 812.013 
49.4316 107.964 812.626 
49.1197 108.545 811.907 
47.1712 110.429 811.273 
43.4076 114.247 809.831 
41.6406 115.459 812.672 
40.9049 116.26 812.722 
38.779 118.927 814.94 
33.9419 124.156 811.938 
34.6859 123.294 812.083 
35.0278 122.725 811.186 
89.9262 162.725 792.599 
86.0993 163.26 787.007 
86.3836 163.775 788.044 
86.8016 162.931 787.611 
89.2185 159.889 787.729 
85.5001 161.478 784.748 
85.3252 160.719 784.104 
90.2799 158.031 787.542 
90.6997 149.276 785.4 
91.4593 150.03 785.937 
91.6453 148.839 785.994 
91.2098 151.134 785.881 
90.0383 147.579 785.059 
90.8699 147.001 785.574 
89.9598 146.41 785.141 
88.4813 147.542 784.216 
77.2401 129.101 790.37 
78.364 129.234 790.455 
73.4842 129.064 789.849 
77.5065 127.542 791.4 
78.4623 127.734 791.426 
77.9614 126.821 791.925 
76.3818 125.916 792.254 
75.523 126.166 791.969 
76.8588 124.424 793.259 
76.6917 125.105 792.809 
76.1587 121.896 794.744 
77.1382 122.255 794.658 
77.1189 121.34 795.23 
77.0274 123.831 793.656 
72.7132 120.075 795.474 
72.3864 120.866 794.909 
73.4087 120.912 795.008 
80.8646 118.338 797.611 
80.371 119.029 797.118 
81.5444 119.034 797.278 
79.3033 118.965 797.015 
78.1776 114.736 799.607 
77.1254 114.58 799.617 
75.9309 114.444 799.611 
76.5317 115.211 799.138 
75.0183 112.739 800.742 
76.7994 112.315 801.155 
76.0995 112.928 800.678 
77.2852 113.118 800.63 
74.4546 108.838 803.601 
71.8513 108.74 803.641 
73.4255 112.402 800.898 
70.6604 103.647 807.775 
68.8505 100.759 810.36 
62.6692 101.479 811.086 
63.759 101.53 810.69 
63.4511 100.816 811.492 
62.327 102.751 809.903 
60.2055 104.387 808.928 
61.2322 104.138 808.834 
60.7206 103.618 809.555 
59.7772 105.117 808.307 
59.1264 106.394 807.182 
56.8965 107.86 806.437 
57.0827 107.167 807.134 
56.0782 107.708 806.974 
54.41 111.816 803.094 
48.8061 111.12 807.544 
48.1546 111.159 808.208 
47.4476 112.822 806.235 
45.0245 113.198 808.883 
45.1804 112.782 809.58 
45.9783 113.36 807.035 
45.2143 114.621 805.725 
40.687 117.296 807.834 
37.7276 119.949 808.19 
38.3157 119.322 808.617 
37.6321 119.925 809.133 
35.6838 121.886 809.574 
32.3648 125.31 806.5 
32.0262 125.692 805.679 
88.0918 158.069 785.382 
88.1729 156.267 784.722 
85.3687 156.894 782.676 
85.75 156.111 782.789 
86.3478 154.277 782.914 
86.0896 152.503 782.62 
81.9572 154.023 780.228 
81.6156 152.237 780.201 
80.6221 152.364 779.701 
81.3431 153.247 779.955 
79.2703 154.609 778.74 
80.2333 154.365 779.271 
79.4616 153.522 778.969 
77.7755 153.117 778.224 
78.5784 150.028 779.304 
79.3 150.637 779.439 
77.7019 148.262 779.543 
76.713 148.407 779.154 
77.6205 149.212 779.189 
75.1766 138.124 784.209 
74.8308 138.961 783.622 
75.9241 138.829 783.883 
74.2318 115.285 798.891 
73.862 116.219 798.211 
75.0405 116.136 798.375 
72.5803 112.778 800.579 
70.4161 112.619 800.606 
70.2338 113.472 799.953 
71.3899 113.165 800.234 
68.2748 113.039 800.223 
68.619 112.318 800.792 
58.7961 107.086 806.565 
57.0738 112.012 802.069 
57.4667 111.288 802.683 
56.5305 111.404 802.821 
59.4723 114.275 799.54 
59.9599 113.533 800.14 
58.8803 113.637 800.19 
61.2228 111.537 801.762 
54.9633 112.349 802.333 
54.443 113.009 801.816 
50.1599 112.006 805.096 
50.924 111.524 805.206 
49.1562 112.672 804.932 
48.2065 113.343 804.747 
49.0907 113.348 804.06 
47.4406 114.543 803.662 
42.4991 117.595 803.754 
42.5508 117.167 804.492 
37.7438 120.895 804.381 
35.4121 122.977 803.834 
37.5488 121.748 802.537 
37.0559 121.922 803.046 
32.9421 125.611 801.72 
33.7608 125.243 800.844 
33.7978 124.868 801.896 
31.9546 127.071 799.472 
32.8678 126.32 799.679 
32.0109 126.698 800.541 
30.5593 127.197 806.194 
28.836 129.001 804.741 
28.6847 129.256 801.967 
29.3235 128.592 802.596 
28.4501 129.404 803.049 
79.2534 166.876 781.464 
79.9852 166.25 781.871 
77.7084 164.763 778.696 
81.8129 156.201 780.136 
78.2472 158.812 778.004 
77.5519 157.072 777.605 
76.658 157.512 777.073 
77.5086 158.201 777.542 
75.7237 160.09 776.439 
76.6023 159.661 776.988 
75.7663 158.955 776.482 
74.9716 158.328 776.062 
74.6046 148.878 778.262 
73.9531 148.564 778.183 
76.7369 145.642 780.318 
76.2341 146.571 779.756 
77.2812 146.565 780.068 
71.8797 142.219 781.072 
71.9516 141.351 781.631 
73.1877 138.317 783.782 
73.4748 137.555 784.323 
72.599 139.015 783.239 
72.2078 139.626 782.781 
68.6493 132.847 786.784 
66.524 120.803 794.321 
66.2846 121.41 793.873 
69.889 118.436 796.299 
70.0777 116.92 797.4 
69.3285 116.094 797.951 
68.7941 116.861 797.351 
66.1486 115.565 798.209 
66.9001 116.205 797.74 
67.2936 115.454 798.33 
61.6605 116.173 797.748 
62.4486 116.815 797.2 
62.7993 115.989 797.864 
62.4172 114.631 798.997 
61.7102 114.029 799.546 
61.2668 114.79 798.929 
66.8594 114.048 799.409 
66.1263 113.369 799.941 
65.7506 114.187 799.289 
63.2552 111.283 801.781 
62.9257 111.872 801.301 
57.6746 120.832 794.096 
58.354 117.854 796.534 
58.5576 117.132 797.136 
51.4396 117.966 797.663 
51.5743 118.569 797.016 
50.845 120.774 795.027 
46.7232 117.215 800.589 
47.2489 119.091 798.01 
46.8335 119.768 797.409 
43.4085 118.958 800.584 
39.9673 122.418 798.234 
39.3559 122.942 797.943 
40.7283 125.353 793.54 
37.2649 124.576 797.193 
35.6116 125.131 798.025 
34.6258 128.121 793.616 
32.8095 129.04 793.737 
29.665 128.636 800.412 
30.4657 128.116 799.841 
30.3706 127.935 800.925 
72.5513 169.976 776.007 
73.3534 170.252 776.965 
73.3326 169.218 776.423 
76.3074 161.72 776.912 
77.1094 161.351 777.437 
71.8329 168.487 774.788 
72.6231 167.819 775.26 
71.9078 167.356 774.552 
68.9168 164.819 772.219 
70.9984 169.159 774.275 
70.3701 169.595 773.865 
72.016 158.954 774.414 
71.221 159.273 773.967 
71.9655 159.895 774.27 
71.5804 156.919 774.564 
72.136 157.904 774.636 
72.6237 156.997 775.034 
71.1349 156.085 774.56 
71.1132 155.116 774.807 
70.521 148.364 777.263 
69.9109 148.456 777.052 
65.21 139.901 781.569 
63.2849 140.629 780.766 
64.267 135.301 784.607 
58.8126 134.701 784.266 
63.8128 132.926 786.107 
64.6201 133.554 785.804 
64.8001 132.663 786.403 
63.2022 130.77 787.414 
63.0531 131.609 786.859 
64.0156 131.21 787.234 
57.9277 128.634 788.274 
60.3293 117.234 796.928 
60.2985 117.989 796.303 
61.1736 117.74 796.478 
59.6481 120.268 794.481 
54.8641 122.876 792.587 
55.2414 123.682 791.908 
56.0324 122.97 792.446 
50.8344 123.471 792.5 
52.8767 123.258 792.435 
51.9109 123.767 792.096 
53.1302 124.09 791.701 
51.3373 125.976 790.224 
52.3197 125.463 790.597 
51.0822 125.135 790.979 
53.4217 125.798 790.265 
46.5718 121.299 795.768 
47.3967 121.093 795.691 
46.3876 125.577 791.29 
47.2141 124.841 791.849 
46.0551 124.873 792.092 
42.2669 125.666 792.449 
43.2354 125.85 791.878 
44.3271 126.063 791.301 
44.2529 125.304 792.15 
42.4789 127.731 790.004 
43.4245 127.271 790.243 
42.337 127.052 790.816 
44.3761 127.507 789.751 
40.0489 125.201 794.116 
40.0949 124.605 794.901 
37.9769 125.987 794.336 
37.5403 126.707 793.578 
38.6693 126.272 793.472 
38.4297 127.749 791.593 
39.03 127.195 792.017 
36.6355 127.988 792.306 
36.763 130.688 788.577 
34.4385 133.831 785.675 
31.3239 131.504 790.908 
30.4364 132.158 790.627 
31.3832 132.084 789.926 
29.5866 133.804 788.697 
30.4324 133.282 788.822 
29.5027 133.325 789.542 
23.9246 134.075 799.674 
24.3869 133.579 800.424 
20.179 138.24 798.561 
20.9135 137.364 798.365 
20.6805 137.77 799.446 
21.4092 136.852 796.304 
21.1815 137.039 797.196 
72.4857 172.01 777.078 
71.8503 171.699 776.173 
67.9542 165.492 771.614 
70.8535 161.719 773.494 
70.0843 162.399 773.016 
70.4181 159.103 773.6 
65.1214 158.386 771.459 
66.3871 155.449 772.909 
67.3709 148.683 776.278 
67.2516 149.568 775.779 
68.2192 149.197 776.224 
69.2054 148.769 776.705 
64.6793 148.309 775.852 
65.4154 149.123 775.558 
65.6888 148.271 776.105 
63.8873 143.6 778.754 
63.2532 143.318 778.842 
60.8804 145.239 777.061 
59.171 138.824 781.425 
59.8536 138.439 781.808 
57.7441 133.15 785.18 
56.1576 127.704 788.821 
55.0195 126.419 789.752 
48.0191 126.345 790.241 
49.264 126.393 790.039 
48.8899 125.6 790.818 
47.6191 127.717 789 
48.1921 128.234 788.468 
47.7251 131.414 785.698 
48.5115 131.456 785.662 
43.8533 130.923 786.388 
45.8221 130.602 786.497 
47.1155 132.817 784.493 
41.0166 129.923 787.981 
41.3545 130.564 787.199 
39.621 132.109 785.936 
39.2302 131.577 786.632 
38.0729 132.757 785.633 
37.549 132.286 786.337 
34.215 135.653 783.617 
32.3038 135.41 784.715 
32.3788 134.73 785.532 
30.0421 137.007 783.868 
29.4313 136.769 784.529 
29.7935 137.634 783.203 
25.9185 136.189 788.197 
27.5699 136.171 786.693 
26.6034 136.783 786.557 
27.5863 136.774 785.772 
22.8062 135.432 796.632 
20.6443 138.106 793.001 
19.4301 139.359 799.479 
14.1052 145.092 795.318 
17.629 140.884 795.723 
65.7521 169.889 770.312 
66.3041 170.803 770.844 
66.6265 169.67 770.92 
62 170.33 767.801 
62.5066 171.322 768.144 
62.9586 170.232 768.421 
62.0376 172.311 767.871 
64.4264 167.859 769.383 
58.2319 158.617 768.879 
62.3024 161.349 769.431 
58.1779 149.583 773.592 
59.1334 149.946 773.584 
58.7658 149.047 774.065 
56.8939 148.053 774.321 
60.7586 146.879 775.913 
50.6851 145.312 775.128 
51.6068 145.156 775.403 
54.3336 147.496 774.193 
55.046 147.247 774.508 
58.9764 140.152 780.43 
59.2347 140.794 780.002 
50.4938 136.027 782.166 
51.3987 136.027 782.281 
47.4902 135.359 782.386 
49.9593 137.615 780.883 
43.5059 132.1 785.282 
41.077 134.649 783.066 
37.9976 140.859 777.719 
32.6522 139.344 780.118 
32.3572 140.126 779.377 
33.4686 139.77 779.459 
33.9286 141.71 777.424 
34.1309 140.945 778.14 
33.003 141.291 778.021 
32.2577 143.061 776.362 
32.9471 142.77 776.536 
29.692 140.91 779.352 
27.8585 140.893 780.099 
27.1455 141.446 779.733 
25.6011 138.658 784.472 
26.6073 138.036 784.642 
25.6169 138.028 785.437 
27.4025 138.773 783.063 
26.4464 139.33 782.895 
27.293 139.375 782.319 
21.797 138.75 788.421 
23.9213 138.15 786.855 
23.4394 138.137 787.435 
19.3595 140.872 787.446 
19.8735 140.935 786.434 
20.1961 140.393 787.177 
16.13 145.236 781.953 
15.7465 142.921 791.02 
15.4816 143.275 790.059 
16.2714 142.586 789.989 
15.2271 143.62 795.04 
14.5716 144.341 794.675 
13.9634 144.749 792.919 
14.0344 144.576 791.625 
14.6809 143.936 792.334 
10.7648 147.687 790.173 
11.6412 146.848 790.248 
11.1355 147.461 791.115 
61.4362 179.245 769.422 
61.7715 179.831 770.184 
62.1475 179.016 770.044 
62.5812 174.986 768.716 
62.9629 174.314 768.869 
60.3908 176.856 767.361 
61.1581 174.434 767.452 
58.0058 170.782 765.397 
61.8446 168.627 767.801 
62.6475 168.307 768.296 
56.9659 165.495 766.025 
64.0258 162.412 769.925 
58.2612 160.336 768.217 
57.7288 162.247 767.343 
57.002 161.378 767.386 
56.861 162.353 766.983 
54.453 161.316 766.537 
55.2816 161.919 766.58 
55.3098 160.915 766.981 
54.1585 163.475 765.61 
53.4325 162.605 765.69 
53.2472 163.474 765.293 
57.4449 153.983 770.836 
57.2983 154.835 770.35 
58.0438 156.654 769.675 
57.1877 155.998 769.736 
57.1793 157.139 769.194 
54.416 156.362 768.775 
55.3515 156.986 768.728 
55.2998 155.832 769.29 
55.3766 158.042 768.236 
54.3569 150.967 771.86 
55.3003 151.696 771.62 
55.3404 150.707 772.244 
53.985 152.733 770.683 
53.2939 152.043 770.946 
52.9583 152.686 770.472 
49.7886 150.157 771.462 
53.5929 149.505 772.656 
54.5301 149.26 773.015 
48.1648 149.476 771.647 
46.1391 149.283 771.451 
45.431 149.877 770.907 
46.5637 150.041 770.974 
50.0821 143.97 776.044 
48.3413 143.544 776.102 
48.4691 142.788 776.702 
46.8296 144.218 775.375 
46.2718 143.574 775.803 
45.7253 144.225 775.231 
44.7303 148.069 772.144 
46.2946 146.322 773.688 
46.8797 145.679 774.261 
45.8186 145.561 774.208 
35.6966 141.869 777.018 
35.9159 141.118 777.694 
36.3252 145.749 773.43 
36.0561 147.085 772.237 
36.5487 147.926 771.508 
37.1052 147.245 772.12 
33.6578 148.161 771.238 
34.7945 148.368 771.062 
34.3321 147.53 771.826 
34.2762 149.637 769.899 
29.4454 143.427 776.586 
30.137 142.861 777.035 
31.5466 145.473 773.998 
27.9597 143.027 777.49 
28.5547 142.321 778.119 
27.3161 142.558 778.287 
26.0365 142.85 778.446 
25.1288 143.077 778.56 
24.4497 143.159 778.783 
18.2887 145.092 779.944 
15.4191 146.306 780.491 
16.0529 145.956 780.504 
15.7141 149.044 775.089 
19.7394 146.472 776.599 
15.5966 143.498 788.209 
16.0257 143.405 787.209 
16.452 142.845 788.091 
14.1234 144.685 788.301 
14.269 146.091 782.592 
12.2319 147.093 783.544 
11.8721 147.588 782.649 
12.752 147.039 782.605 
11.5691 146.902 787.25 
11.898 146.568 788.246 
10.9452 147.389 788.193 
9.16427 148.931 787.964 
9.9092 148.827 782.839 
9.56973 149.207 782.202 
10.085 148.799 791.986 
9.68582 148.984 791.148 
59.9717 181.622 769.443 
60.6457 181.192 769.916 
60.2927 180.684 769.103 
56.7407 174.871 764.374 
55.9375 177.213 763.927 
56.7552 176.977 764.496 
52.6188 170.873 762.697 
52.9271 171.573 762.672 
52.781 168.766 763.343 
55.3962 167.806 764.723 
55.4987 165.831 765.325 
50.8519 165.911 763.559 
48.0874 164.421 763.257 
48.6054 163.773 763.687 
48.3906 166.491 762.51 
50.3033 158.797 766.44 
50.9918 160.393 765.871 
50.1855 159.664 765.987 
50.068 160.652 765.491 
47.4196 159.266 765.465 
48.2661 160.068 765.28 
48.3925 159.077 765.807 
53.4643 154.779 769.369 
54.1628 154.374 769.773 
50.2315 156.349 767.701 
47.4375 155.471 767.569 
48.3188 155.257 767.887 
40.7172 153.048 767.873 
41.7149 153.177 767.945 
41.2973 152.486 768.369 
37.958 150.21 769.68 
37.627 149.481 770.248 
38.475 151.17 768.969 
39.0484 152.049 768.362 
39.6428 151.325 768.993 
33.2646 153.156 766.785 
33.7438 152.593 767.299 
33.8866 151.107 768.574 
34.3645 151.816 768.008 
34.8568 151.015 768.729 
29.3717 153.575 766.133 
30.0462 153.603 766.145 
32.3191 147.38 772.018 
32.7055 146.745 772.621 
24.482 150.094 769.985 
21.2324 146.805 775.299 
20.9701 147.456 774.506 
20.6682 148.156 773.664 
21.727 147.772 773.739 
14.6264 146.673 780.648 
13.1664 147.45 780.781 
12.1848 148.021 780.793 
12.8639 147.992 779.875 
10.9437 149.087 779.869 
12.6636 149.266 777.271 
11.6557 149.713 777.407 
9.23644 150.195 779.552 
9.47194 149.764 780.448 
8.58047 149.734 789.667 
57.3039 184.835 769.07 
57.2533 185.407 769.773 
58.0043 183.205 768.329 
57.4352 183.037 767.475 
57.3596 183.972 768.198 
53.1018 182.527 762.589 
56.2268 178.914 764.399 
56.9585 178.501 764.904 
49.3275 167.137 762.577 
50.044 167.651 762.642 
46.2421 170.908 760.056 
47.1024 170.85 760.403 
42.7732 170.289 759.073 
47.3583 162.656 763.815 
42.6448 160.493 763.666 
46.6924 156.714 766.679 
46.5613 157.561 766.171 
47.5581 157.363 766.512 
45.1509 155.762 766.905 
43.5593 155.047 767.027 
41.9693 154.635 766.991 
41.3946 155.211 766.503 
39.2043 154.855 766.346 
37.0868 154.666 766.127 
37.4769 154.103 766.599 
35.1629 154.128 766.242 
33.7758 154.297 765.929 
32.427 155.234 765.037 
30.5405 155.839 764.355 
32.8144 157.249 763.608 
32.0562 157.636 763.221 
28.8049 150.239 769.302 
28.5361 153.764 765.932 
28.3742 154.406 765.361 
22.294 148.676 772.325 
21.3492 149.11 772.09 
22.3039 149.332 771.475 
20.5338 150.914 769.99 
21.489 150.437 770.312 
20.4761 150.236 770.902 
19.3728 150.089 771.519 
18.5701 150.018 771.964 
14.578 151.345 772.021 
18.0446 149.881 772.408 
12.8151 150.199 775.279 
11.8563 150.566 775.417 
49.7553 191.597 764.865 
49.2227 192.545 765.368 
49.8879 191.931 765.825 
51.5227 184.818 761.772 
52.3582 184.638 762.603 
51.9492 183.71 761.833 
51.4357 182.752 761.106 
51.0185 182.077 760.635 
50.7767 181.469 760.378 
48.3458 186.589 759.025 
50.3245 178.698 760.076 
50.9761 179.269 760.488 
50.928 178.12 760.516 
47.3058 178.326 758.266 
46.6852 178.832 757.8 
47.4523 172.902 759.828 
48.0048 172.664 760.143 
46.0569 172.306 759.457 
46.6556 172.97 759.465 
42.166 172.143 758.028 
42.7605 171.638 758.471 
41.4603 172.937 757.407 
40.8975 173.801 756.8 
41.8668 173.806 757.179 
41.4116 169.697 758.887 
40.2239 168.009 759.319 
39.2776 168.209 758.932 
38.7495 164.766 760.514 
38.6471 166.689 759.509 
39.5566 166.563 759.833 
36.8836 167.086 758.796 
37.6358 163.19 761.046 
31.4346 159.057 762.144 
32.3879 158.93 762.395 
31.7083 158.34 762.677 
27.8542 156.525 763.55 
28.8538 156.932 763.325 
28.7101 155.994 764.054 
26.9317 157.814 762.434 
26.8103 158.707 761.724 
27.8902 158.312 762.154 
22.4184 151.333 768.957 
45.1077 177.432 757.292 
41.2402 175.497 756.194 
38.7693 171.83 756.957 
39.2705 172.763 756.676 
39.8402 171.893 757.302 
155.78 116.697 832.549 
158.3 112.884 830.72 
156.134 112.125 827.068 
156.797 111.835 827.609 
143.256 92.5766 821.003 
143.346 93.4722 820.625 
144.105 92.9827 821.091 
140.075 91.6965 820.489 
93.9995 59.9314 839.025 
96.5203 62.0323 836.876 
166.256 69.0732 840.223 
51.0594 190.14 765.304 
51.1288 190.638 766.298 
51.6792 189.831 766.087 
53.3273 186.732 765.151 
53.9492 186.146 765.51 
86.5682 59.4721 842.391 
85.9272 59.8332 842.413 
91.9809 60.1674 839.407 
91.822 60.6778 839.029 
47.6962 171.251 760.49 
104.491 147.365 795.852 
103.99 145.972 794.666 
137.806 21.8432 866.491 
138.027 21.221 867.226 
136.907 21.4805 866.901 
138.627 23.8441 864.234 
139.579 23.65 864.461 
138.915 23.2381 864.911 
118.559 141.105 808.471 
118.118 141.89 809.17 
124.193 10.928 898.496 
123.022 11.8555 897.915 
169.728 53.3298 847.836 
169.281 53.9678 847.481 
102.958 29.507 869.765 
102.352 28.9854 873.759 
102.866 28.5867 873.405 
77.8123 59.772 859.743 
77.7107 60.0503 860.82 
76.6817 61.5797 858.304 
77.2268 60.6869 858.27 
86.8061 72.7857 830.239 
87.6137 73.0954 829.841 
191.034 74.3457 854.902 
190.399 74.8593 854.104 
75.0619 172.987 781.753 
74.7348 172.682 780.775 
69.7451 170.09 773.474 
76.433 169.131 779.725 
74.7565 170.557 778.751 
74.1605 170.459 777.978 
53.8173 189.013 769.545 
53.2279 189.488 769.158 
19.2006 142.141 784.714 
19.6767 142.229 783.93 
127.185 8.31771 894.609 
127.999 7.7543 895.119 
73.7022 68.5951 844.582 
72.9885 69.3514 844.729 
73.8017 70.0287 841.234 
65.4086 176.36 771.918 
65.5318 175.337 771.52 
65.0124 177.308 772.068 
120.822 12.7266 892.02 
122.888 11.7736 897.086 
92.5989 40.7444 874.7 
203.799 66.3882 874.274 
206.876 60.5191 876.659 
206.552 61.3223 876.541 
196.497 75.3524 865.606 
195.388 75.9778 863.738 
194.931 76.7965 863.664 
198.76 72.9691 868.336 
206.152 61.9149 876.051 
205.152 62.2398 873.944 
204.826 60.8333 872.484 
207.217 56.0428 874.669 
206.916 56.9038 874.526 
194.117 77.2731 862.335 
194.399 77.4451 863.23 
194.025 76.7422 861.541 
192.714 77.484 859.494 
192.292 78.3604 859.455 
202.809 60.0852 868.821 
204.66 56.6358 870.68 
190.037 82.5719 859.988 
188.817 83.4702 857.951 
188.29 84.2721 857.998 
191.268 78.3459 857.296 
191.426 78.8976 858.12 
189.91 79.2054 855.283 
189.537 80.1013 855.252 
194.921 75.2103 861.991 
194.439 75.8919 861.603 
195.226 73.1141 861.142 
194.703 72.953 860.166 
197.294 70.5063 863.422 
195.992 71.4404 861.635 
195.727 72.4705 861.672 
198.078 68.6678 863.98 
197.506 69.3653 863.302 
198.045 66.3272 863.243 
200.186 64.1438 865.918 
198.808 64.6578 864.003 
198.54 65.7311 863.841 
200.548 63.2061 866.229 
199.905 61.3204 864.956 
199.198 61.4148 864.034 
198.443 63.6384 863.321 
201.837 59.4301 867.26 
202.216 56.7887 867.299 
201.687 57.3854 866.708 
205.394 52.8516 870.758 
203.725 52.5666 868.52 
203.52 53.4877 868.421 
187.733 84.9548 857.707 
187.427 85.0132 856.705 
187.513 84.4315 855.738 
186.317 85.3029 853.683 
185.844 86.1098 853.688 
190.564 81.7698 859.953 
188.812 83.0211 857.072 
188.653 80.659 853.921 
189.03 80.8286 854.837 
188 83.601 855.723 
188.542 82.9016 856.119 
188.437 80.1062 853.12 
187.055 81.0083 851.184 
186.725 81.8796 851.1 
191.648 77.2805 857.237 
189.685 78.6499 854.495 
194.544 72.0218 859.527 
193.115 72.4932 857.486 
192.849 73.6635 857.461 
198.779 60.5057 863.407 
197.803 63.6193 862.459 
199.525 56.0779 863.984 
199.969 56.8661 864.544 
197.903 56.678 862.237 
197.736 57.8456 862.07 
198.969 59.3882 863.55 
199.605 58.9646 864.287 
202.729 56.1705 867.865 
202.939 54.0558 867.787 
202.314 53.6211 866.967 
201.046 54.9648 865.63 
202.273 52.6157 866.796 
201.07 51.7122 865.389 
200.408 52.2669 864.727 
200.417 54.4614 864.874 
203.495 49.6816 867.831 
200.669 50.0138 864.891 
180.901 92.3652 850.773 
180.245 92.4294 848.226 
179.391 94.287 850.558 
184.449 88.5162 854.527 
183.893 89.1612 854.117 
185.309 86.7834 853.282 
185.072 86.6965 852.365 
185.026 86.2698 851.555 
183.807 87.2116 849.67 
183.396 87.9718 849.638 
186.28 82.6118 850.746 
185.452 85.4398 851.551 
185.96 84.7251 851.938 
184.303 83.2775 847.659 
184.23 84.069 847.912 
189.243 78.4564 853.613 
188.762 79.1914 853.167 
189.249 76.2443 852.783 
188.552 76.1614 851.771 
188.222 75.2755 851.187 
186.668 75.6934 849.319 
186.495 76.8321 849.199 
192.158 76.6203 857.748 
192.254 74.3943 856.793 
191.655 74.2716 855.815 
191.378 73.455 855.183 
189.897 70.7104 852.989 
189.238 71.2771 852.219 
189.209 73.7314 852.284 
189.816 74.3244 853.168 
194.957 70.9413 859.806 
194.307 68.951 858.42 
193.575 69.1162 857.46 
192.774 71.5579 856.762 
193.172 68.3613 856.869 
192.115 71.5772 855.85 
193.162 67.2394 856.803 
191.703 66.4338 855.147 
191.124 66.8636 854.496 
197.248 64.3004 861.799 
195.799 63.5189 859.919 
195.354 64.1099 859.393 
194.814 64.3221 858.748 
193.669 66.6691 857.401 
194.221 66.4558 858.07 
195.963 57.3154 860.227 
194.433 58.2527 858.667 
194.396 59.1518 858.553 
196.558 55.5404 860.891 
196.045 56.2281 860.363 
195.953 53.2138 860.461 
195.164 52.9939 859.802 
199.722 54.9599 864.14 
198.778 51.3965 863.09 
198.377 51.8266 862.71 
197.799 49.3274 862.275 
198.491 49.191 862.872 
199.708 46.3207 864.025 
199.019 46.6429 863.435 
198.754 44.0092 863.44 
177.959 95.8978 849.525 
176.873 96.902 847.696 
176.274 97.6693 847.806 
179.296 93.4523 847.308 
179.364 92.9338 846.498 
182.186 90.4406 850.497 
182.885 88.6326 849.243 
182.599 88.518 848.355 
182.496 88.025 847.558 
181.163 88.7993 845.562 
182.982 87.0064 847.615 
185.56 80.9241 848.753 
184.161 80.2414 846.674 
183.616 81.0217 846.083 
184.995 77.2541 847.459 
185.837 77.5359 848.465 
183.932 79.1819 846.304 
186.147 80.0423 849.352 
184.504 76.1676 846.944 
182.626 76.2829 845.114 
183.11 79.0068 845.376 
188.494 74.1909 851.421 
187.462 71.1343 850.286 
190.035 65.5629 853.521 
190.422 66.641 853.781 
188.121 65.1132 851.836 
187.662 66.071 851.255 
188.678 68.4329 851.821 
189.527 68.5829 852.675 
191.475 62.1138 855.383 
191.803 61.3094 855.808 
193.765 35.1856 862.602 
127.757 7.96783 898.867 
128.186 7.73293 899.951 
128.962 7.00817 897.002 
129.855 6.36558 897.301 
124.307 10.4228 896.109 
124.674 10.2391 897.001 
125.422 9.51021 894.001 
126.338 8.90059 894.051 
120.139 14.3716 896.915 
120.838 13.7867 897.287 
117.812 15.871 894.379 
118.187 15.9022 895.521 
118.992 14.3205 892.75 
120.265 13.7387 895.301 
119.809 14.4046 896.048 
113.501 20.2149 893.264 
113.993 18.7805 891.368 
114.816 17.9597 891.502 
108.072 24.4905 888.062 
108.598 23.6302 887.721 
110.05 22.4343 889.188 
110.163 22.8506 890.322 
168.245 105.806 841.355 
167.111 106.668 839.488 
166.525 107.385 839.58 
171.375 102.773 844.316 
169.776 104.362 843.019 
172.034 101.893 843.761 
171.738 101.42 841.212 
