265.803009 -33.764801 909.096985 
268.104004 -35.454102 910.749023 
267.570007 -37.255199 910.672974 
268.148010 -40.751301 911.752991 
266.433990 -40.559898 910.780029 
267.575012 -39.126400 911.041992 
272.917999 -36.372799 914.395996 
271.542999 -37.049301 913.331970 
271.816010 -35.223499 913.435974 
274.265991 -33.875999 915.684998 
273.209015 -32.773602 914.737976 
274.286987 -32.143501 915.896973 
277.480988 -33.297501 919.379028 
276.433014 -34.187199 917.966980 
276.321991 -32.376099 918.155029 
278.595001 -38.189800 919.971985 
277.545990 -37.086700 918.890991 
278.570007 -36.330898 920.151001 
280.983002 -34.088001 923.906982 
280.717987 -35.646702 923.046021 
282.459991 -31.467100 927.484009 
186.182007 -67.649803 957.383972 
186.175003 -67.985901 959.185974 
185.145996 -66.577797 958.504028 
189.044006 -71.435097 957.330017 
188.167999 -70.530197 958.578003 
188.167999 -70.095802 956.893005 
184.822006 -64.936699 952.111023 
187.703995 -67.468803 949.789001 
187.522995 -67.709198 951.255005 
186.561005 -64.592598 944.603027 
186.304993 -64.915802 946.343018 
185.337997 -63.700802 945.565002 
189.662003 -68.053101 945.447998 
188.414001 -67.072304 946.307007 
188.778000 -66.789299 944.557983 
187.085007 -62.242199 937.755981 
187.069000 -62.963799 939.328003 
185.970993 -61.722301 938.732971 
186.826996 -60.450401 934.645020 
187.003998 -61.384201 936.166992 
185.533005 -60.127899 936.098022 
185.914001 -58.214401 931.754028 
187.259995 -59.169300 931.710999 
186.671997 -59.572701 933.229004 
188.483994 -59.294701 930.453979 
185.835007 -56.445400 928.627014 
189.479004 -57.146500 926.067993 
188.231003 -57.272598 927.440979 
187.834000 -56.165001 926.067017 
183.873993 -49.577599 919.328003 
185.354004 -50.475899 919.554993 
183.903000 -50.539299 920.708008 
188.487000 -52.237701 919.841003 
186.753998 -52.312901 921.142029 
186.897003 -51.398499 919.773987 
183.035004 -46.431801 915.895020 
183.291000 -47.541801 917.041992 
181.800995 -46.762600 916.989990 
186.343002 -46.269299 914.171997 
185.817993 -47.452301 915.617004 
184.518005 -46.188400 914.900024 
190.414993 -47.115799 913.291016 
188.238007 -46.116100 913.250977 
189.589005 -45.290199 912.007996 
192.888000 -48.066700 913.135010 
191.102005 -48.993198 914.767029 
188.604996 -40.371101 908.504028 
189.733994 -41.466000 908.950989 
188.076996 -41.521500 909.526978 
190.869995 -39.724400 907.320007 
189.292007 -39.353001 907.546021 
190.182007 -38.380001 906.559021 
194.770004 -38.074799 904.882019 
193.794998 -39.362202 906.125000 
192.932007 -37.718399 905.203979 
186.787994 -32.825298 903.283020 
187.654007 -34.223499 904.169006 
185.824997 -33.907398 904.487000 
191.300003 -32.451099 901.508972 
190.386002 -33.485401 902.692993 
189.526993 -32.115700 901.783997 
191.376007 -30.123800 899.341003 
189.610992 -29.761200 899.562012 
190.576004 -28.791901 898.294006 
194.813004 -28.811001 897.033997 
193.957001 -29.589199 898.028992 
193.378006 -28.312799 896.956970 
188.929993 -26.158800 896.125977 
188.054993 -24.867300 895.054993 
189.770996 -25.208500 894.882019 
187.742004 -17.849400 888.460022 
188.759995 -19.275200 889.439026 
187.093994 -19.059999 889.669983 
182.748001 -14.887500 887.440979 
184.434006 -15.508700 887.424988 
183.167007 -16.334801 888.456970 
174.447998 -2.640890 882.655029 
177.714996 -2.745570 881.500000 
177.186996 -4.205820 882.486023 
176.102005 -2.766450 882.096008 
173.330994 1.736360 880.643005 
173.957993 0.035832 881.359985 
171.216003 9.209450 876.796997 
167.940002 7.102280 879.030029 
167.690994 5.759110 880.002991 
160.658005 11.734400 876.874023 
162.246002 7.943540 879.773987 
187.369003 -22.573999 892.914978 
186.709000 -21.332899 891.888977 
188.395996 -21.702499 891.763977 
196.431000 -19.940100 888.512024 
194.729004 -20.255699 889.044983 
195.203003 -23.069799 891.455994 
193.156006 -23.108700 891.919006 
194.059006 -21.712900 890.445984 
196.845001 -24.129299 892.120972 
197.257996 -22.905001 890.947021 
198.257996 -25.128599 892.793030 
196.643997 -25.487200 893.416992 
202.869995 -25.368000 892.479004 
201.511002 -24.543501 891.869995 
208.076996 -33.827900 898.716003 
206.210999 -33.527000 898.719971 
207.617996 -32.418999 897.770020 
209.988998 -33.897499 898.586975 
210.483002 -32.519199 897.632996 
211.654999 -33.623699 898.294983 
211.457993 -37.520199 900.719971 
210.621994 -36.570801 900.231995 
214.419006 -38.411201 900.968018 
216.166000 -38.730499 901.026978 
215.011993 -39.946499 901.780029 
215.462006 -43.209801 903.554993 
215.307007 -41.623798 902.684021 
217.104004 -42.134399 902.822998 
225.778000 -38.884102 900.965027 
224.139008 -39.778599 901.393005 
228.007004 -39.664501 901.429993 
227.591995 -37.496101 900.328003 
228.539001 -41.109001 902.177002 
232.069000 -41.822701 902.715027 
230.302994 -41.833900 902.622986 
231.494003 -40.529400 902.026978 
237.699997 -41.825901 903.153992 
237.214996 -43.393299 903.953003 
235.964996 -41.982700 903.078979 
235.677994 -46.483101 905.624023 
234.572998 -45.031601 904.640991 
236.514008 -44.965698 904.783997 
244.332993 -46.155701 906.546021 
242.501999 -45.418301 905.796021 
244.658005 -44.711399 905.689026 
250.960007 -46.711201 908.184998 
249.867004 -45.615200 907.258972 
251.673004 -45.293499 907.492981 
255.996002 -44.002102 907.973999 
255.339005 -45.142101 908.388000 
259.636993 -44.786400 909.538025 
260.920990 -45.280602 910.213989 
262.899994 -41.800598 909.513000 
263.316010 -39.594101 908.966980 
264.880005 -40.943600 910.122009 
267.756012 -44.252701 912.604004 
266.687988 -43.295200 911.750000 
268.033997 -42.571701 912.197998 
273.579010 -41.247601 915.450012 
272.380005 -40.240898 914.377991 
273.829010 -39.373901 915.387024 
276.157990 -41.480999 917.614014 
276.257996 -39.681900 917.554993 
277.445007 -40.888199 918.752991 
280.484985 -37.266102 922.364014 
279.605988 -35.700298 921.554016 
188.856003 -69.983498 953.416016 
189.485992 -71.192497 954.580994 
188.322006 -69.819801 955.151978 
190.556000 -72.670998 954.541992 
190.126007 -69.586899 948.031982 
189.753998 -69.821404 949.765991 
188.921997 -68.541199 948.890991 
191.619003 -71.994499 949.538025 
190.792007 -65.185204 937.379028 
189.477997 -64.756401 938.642029 
189.442001 -63.891899 937.083008 
192.919006 -64.876801 934.206970 
191.697006 -65.118202 936.036987 
190.957001 -63.765701 934.791992 
194.292007 -64.567001 932.333008 
194.923996 -66.228699 934.033997 
191.348999 -59.513401 927.893005 
191.199005 -60.570000 929.591980 
189.806000 -59.406898 929.216003 
195.257996 -62.146198 928.166992 
193.647003 -61.902000 929.216980 
193.938004 -60.885101 927.562988 
190.447006 -54.589600 921.637024 
190.806000 -55.854801 923.104004 
188.880997 -54.788101 923.080994 
193.341995 -56.387001 921.981018 
193.477005 -55.480598 920.737000 
190.041000 -51.921902 918.491028 
191.324997 -51.683399 917.491028 
191.401993 -50.583801 916.245972 
189.932999 -49.566101 915.892029 
196.255997 -51.589298 914.903992 
196.643997 -53.297600 916.419006 
194.671005 -52.319401 916.416992 
194.576004 -47.074699 911.609009 
195.291000 -49.006001 912.960022 
194.779007 -43.824799 909.015015 
194.369003 -45.296700 910.268982 
192.675995 -43.981602 909.859009 
198.264008 -44.089298 908.023010 
197.412003 -45.303902 909.190002 
196.410004 -43.725899 908.387024 
198.516998 -41.227798 905.942993 
196.535004 -41.113098 906.491028 
197.602005 -39.877300 905.284973 
199.707001 -37.428398 902.916992 
200.705994 -38.709499 903.546997 
198.651001 -38.642799 904.093018 
193.921997 -34.125599 902.101990 
194.824997 -35.500500 902.924011 
193.029999 -35.194302 903.247986 
198.104996 -33.566601 900.392029 
197.429001 -34.645699 901.458008 
196.466003 -33.351501 900.679993 
197.983994 -31.332300 898.518982 
196.369003 -31.084700 898.729004 
197.123993 -30.090099 897.622009 
201.481003 -29.510599 896.213013 
200.473007 -30.547400 897.276978 
199.621002 -29.239799 896.296021 
192.677994 -25.700899 894.556030 
194.233002 -26.382700 894.822021 
192.757996 -26.996099 895.827026 
191.298996 -25.216200 894.447021 
192.218002 -24.332701 893.320984 
202.960999 -32.359699 898.320007 
204.136993 -31.243900 897.263000 
204.636002 -32.871498 898.452026 
201.649994 -33.232899 899.257019 
208.541000 -40.293999 902.806030 
208.705994 -38.680599 901.786011 
210.195007 -39.464199 902.039001 
210.462997 -42.630600 903.882996 
212.033005 -41.836399 903.174988 
212.257004 -43.487202 904.106018 
209.322998 -47.064602 906.854980 
209.246002 -45.484901 905.859009 
210.970001 -45.987099 905.830994 
219.054993 -46.016800 904.856018 
217.468994 -45.445900 904.640991 
218.832001 -44.401699 903.955994 
222.417007 -46.647400 905.093994 
220.630997 -46.401798 905.000000 
221.746002 -45.167500 904.263977 
225.927994 -47.351002 905.525024 
224.281006 -46.944698 905.258972 
225.498001 -45.489300 904.432983 
229.751999 -48.095600 906.140991 
228.018005 -47.813301 905.875000 
229.209000 -46.683498 905.239014 
233.261993 -47.986000 906.349976 
231.457993 -48.159801 906.302002 
232.216003 -46.743301 905.468018 
230.544006 -49.327202 907.012024 
240.432999 -45.166199 905.357971 
239.205002 -46.660900 906.145996 
238.268997 -45.003399 904.995972 
240.414993 -49.833401 908.531006 
238.789001 -50.372299 908.716980 
239.199005 -48.464100 907.367981 
246.524002 -46.790401 907.333008 
244.589005 -48.202499 907.968994 
247.820999 -47.501400 908.046021 
250.427994 -50.190300 910.382996 
248.927994 -50.460800 910.306030 
253.134995 -47.436100 909.148987 
254.052002 -46.614101 908.880005 
252.123993 -49.879501 910.499023 
260.501007 -48.259602 911.578979 
259.438995 -50.163399 912.309021 
258.378998 -48.452499 911.085022 
263.593994 -44.524200 910.867004 
262.255005 -45.184200 910.643982 
265.881989 -46.626701 912.677002 
264.287994 -47.222401 912.318970 
264.752991 -45.595299 911.781006 
268.052002 -48.333302 914.318970 
266.667999 -49.196098 914.114990 
266.998993 -47.562000 913.538025 
271.796997 -43.815601 914.763000 
270.312012 -44.524399 914.064026 
270.708008 -42.609100 913.752014 
270.888000 -47.363998 915.346985 
272.463989 -46.743999 916.052002 
191.660995 -72.806000 951.213989 
193.197998 -71.663597 945.161987 
193.585999 -72.791901 946.476990 
192.406998 -71.522301 946.564026 
191.882004 -69.723701 944.034973 
192.781006 -70.633598 944.026978 
189.457993 -65.580704 940.310974 
189.533997 -66.221397 941.505981 
197.628998 -68.702301 934.789978 
197.647003 -69.702003 936.109985 
198.304001 -68.103401 933.419006 
196.662994 -67.575401 934.181030 
201.839996 -68.274498 930.984009 
202.858994 -69.264198 931.541016 
193.822006 -62.997501 930.583984 
195.587006 -64.069504 930.458984 
201.936005 -67.216400 929.620972 
200.266006 -67.189301 930.734009 
199.388000 -63.974602 927.349976 
200.550003 -65.016602 927.835022 
198.912994 -64.942596 928.913025 
197.841003 -60.594501 924.192993 
197.223999 -61.478699 925.760986 
196.216003 -60.199100 924.859009 
194.248001 -57.547798 922.849976 
195.901001 -57.956402 922.221008 
195.091003 -58.837898 923.921021 
203.565994 -58.250301 917.979004 
193.619995 -52.952801 917.658020 
193.507004 -54.043301 918.973022 
203.167007 -56.322399 916.184998 
203.283005 -55.125500 914.978027 
204.606995 -56.216702 915.426025 
195.981995 -50.306999 913.825012 
198.365997 -48.757099 911.497986 
198.259003 -47.770901 910.750977 
197.824997 -46.828701 910.184021 
205.953003 -43.997898 905.669006 
199.645996 -33.747398 900.130981 
199.656006 -26.015200 893.385010 
200.983994 -26.933800 894.028992 
199.442993 -27.112801 894.411011 
205.526993 -41.749802 904.333984 
205.395004 -40.174702 903.356018 
207.024002 -41.180698 903.643982 
207.498993 -44.700298 905.747986 
205.981003 -45.567902 906.684998 
207.074997 -50.518902 909.810974 
204.774994 -50.100201 910.218018 
206.151993 -48.867802 908.895020 
207.908005 -53.446701 911.799988 
206.138000 -52.681900 911.757019 
207.533005 -52.007198 910.786011 
213.720001 -50.202099 908.083008 
211.791000 -49.466000 907.927002 
213.248993 -48.469002 907.004028 
216.768005 -49.641998 907.291992 
216.421005 -48.098499 906.333984 
218.177002 -48.609798 906.487000 
220.899002 -52.016399 908.643005 
219.210999 -51.678299 908.479980 
220.406006 -50.554699 907.624023 
224.037003 -51.340302 908.125000 
223.591003 -49.815601 907.060974 
225.380005 -50.296600 907.413025 
228.104996 -53.628101 910.099976 
226.095001 -53.311298 909.705017 
227.554993 -52.227001 908.924988 
228.776001 -51.125900 908.168030 
233.813004 -54.226299 911.255981 
232.195999 -55.467300 912.174011 
231.632996 -53.952000 910.737976 
237.147995 -51.498501 909.385010 
235.449997 -52.895901 910.315002 
234.889999 -51.160702 908.825012 
235.904007 -54.610699 911.870972 
239.774002 -54.490398 912.244019 
239.242004 -56.169601 913.671997 
237.764008 -55.270599 912.697021 
238.925003 -51.623299 909.721008 
240.675995 -51.178902 909.604980 
240.134003 -52.720001 910.781982 
245.115997 -52.792099 911.487000 
243.274002 -53.088402 911.489990 
243.514999 -51.533901 910.281982 
243.126999 -54.497101 912.629028 
243.432999 -55.555901 913.539001 
246.591995 -56.045700 914.192993 
251.600006 -51.387901 911.416992 
249.074005 -58.439999 916.098999 
247.699997 -58.516399 916.109009 
257.462006 -52.870602 913.411011 
255.815994 -54.559200 914.143982 
255.102997 -52.568699 912.797974 
260.459991 -51.065800 913.060974 
258.746002 -51.672901 912.987000 
258.895996 -53.315601 913.950989 
260.285004 -53.815800 914.520996 
261.794006 -54.431499 915.193970 
262.842987 -53.041901 914.726990 
194.184998 -71.809700 943.619019 
198.830994 -74.241302 941.075012 
197.330994 -74.335899 942.940002 
198.785995 -70.813103 936.539001 
197.673004 -71.856697 939.041992 
199.039001 -72.017403 937.903992 
198.755005 -72.927200 939.393005 
207.406998 -69.238998 929.112000 
208.488007 -67.595001 926.645996 
207.856995 -68.391899 927.882019 
206.828003 -67.364197 927.078003 
200.587997 -62.419102 924.591980 
201.360001 -63.645302 925.598999 
199.882004 -63.160500 925.987000 
204.813004 -62.769699 922.492004 
203.917007 -63.544498 923.921021 
203.097000 -62.230499 922.804016 
204.932999 -60.712002 920.013977 
203.108994 -60.146900 920.335999 
204.212006 -59.437801 918.945984 
208.490005 -59.619598 917.278015 
207.544998 -60.323601 918.390015 
206.847000 -55.455399 913.843994 
205.929993 -56.161598 914.827026 
205.889999 -57.196899 915.831970 
205.772003 -58.052399 916.737000 
213.815994 -56.582500 913.004028 
214.720993 -57.451801 913.645996 
212.397003 -52.888599 910.255005 
211.033005 -53.418201 910.947998 
210.608002 -51.828800 909.843994 
211.296997 -54.991600 912.148987 
212.727997 -55.584000 912.340027 
221.447006 -53.369301 909.659973 
220.720001 -54.507099 910.596985 
221.807999 -55.746601 911.643982 
219.835007 -55.703499 911.643005 
226.378998 -57.341599 913.331970 
225.574997 -56.050701 912.049011 
227.395004 -56.211102 912.338989 
232.270996 -59.366199 915.997009 
230.975998 -58.620399 915.094971 
237.404007 -58.490700 915.646973 
236.768997 -57.328899 914.491028 
238.671005 -57.387199 914.726990 
238.061005 -59.633999 916.754028 
247.942993 -55.979500 914.247009 
246.263000 -61.736801 918.465027 
243.886002 -61.429699 918.301025 
245.203003 -59.883900 917.091003 
252.863007 -55.968899 914.666016 
251.352997 -56.090099 914.604980 
252.440002 -58.719299 916.432983 
200.300003 -74.516296 940.008972 
205.522995 -72.947403 934.505981 
206.679001 -73.889603 935.059021 
205.098999 -73.841202 935.807007 
209.792007 -70.910896 930.231018 
208.884003 -71.406700 931.153992 
211.718002 -68.528702 926.718994 
210.554993 -69.128197 927.802002 
210.130997 -67.931396 926.461975 
207.423004 -64.466499 923.257019 
208.380997 -65.657700 924.304993 
206.578003 -65.299698 924.664978 
211.432999 -64.148697 921.411011 
211.013000 -65.035797 922.607971 
209.906998 -63.951099 921.650024 
211.641006 -62.347401 919.257019 
209.960999 -61.991100 919.351013 
210.871002 -61.110901 918.098999 
215.539993 -60.820202 916.866028 
214.539993 -61.794498 918.046021 
213.748993 -60.499199 916.791016 
212.882004 -59.269901 915.698975 
223.440994 -58.316002 914.093018 
221.492004 -58.336601 914.057983 
222.576996 -57.118801 912.905029 
224.440002 -60.792900 916.721008 
222.529007 -60.368500 916.161011 
224.169998 -59.473400 915.309998 
231.106995 -56.395000 912.911987 
229.992004 -57.557499 913.914001 
229.352997 -56.298599 912.617004 
228.598007 -61.573299 917.908020 
226.399994 -61.242599 917.359009 
227.925003 -60.041100 916.226990 
235.373001 -61.644199 918.492981 
233.781006 -61.114399 917.885010 
235.395004 -60.531300 917.437012 
236.800995 -61.974899 918.848022 
242.304993 -62.720798 919.375977 
241.817001 -61.025002 918.026001 
250.024994 -60.163601 917.318970 
210.348999 -70.183701 929.163025 
211.397995 -71.256798 930.146973 
217.735001 -71.586304 929.216003 
213.604996 -66.867897 924.218994 
214.770004 -67.497902 924.780029 
214.942001 -65.104401 921.820984 
213.828995 -65.898399 922.981018 
218.104996 -63.816502 919.976990 
219.348007 -64.512497 920.747009 
215.160995 -63.094200 919.411987 
216.666000 -63.277802 919.453003 
221.498001 -62.427898 918.367004 
223.059006 -62.870701 918.916016 
221.792999 -63.844898 919.974976 
225.712006 -64.217201 920.554993 
224.647995 -63.453300 919.650024 
232.033997 -61.411301 918.041992 
231.746002 -62.429401 919.046021 
230.306000 -61.797199 918.291992 
231.983002 -63.575199 920.197998 
235.580002 -62.840099 919.609009 
233.906998 -66.485397 922.906006 
232.494995 -66.173500 922.677002 
214.119995 -69.537300 927.395996 
215.699005 -69.982498 927.655029 
214.356995 -70.664101 928.713013 
212.944000 -69.081497 927.090027 
218.746994 -66.676804 923.359009 
220.175003 -67.896698 924.729980 
217.776001 -68.022102 925.046021 
217.854004 -65.924797 922.505981 
219.401001 -65.640900 922.085999 
226.940994 -64.748596 921.190002 
225.436005 -65.418404 921.869019 
226.826996 -68.114304 924.744995 
225.600998 -68.608299 925.309998 
225.330002 -67.478401 924.117004 
233.341995 -63.810299 920.466003 
229.931000 -68.167397 924.643982 
222.542999 -68.115700 924.885010 
221.399994 -69.373100 926.351990 
223.542007 -67.304901 923.950989 
204.580994 -18.530800 886.760986 
202.410995 -22.205099 889.812988 
200.671005 -22.381399 890.078979 
201.225998 -21.228800 889.070984 
200.119003 -20.005800 888.150024 
202.007004 -20.143200 888.135010 
200.145996 -17.831400 886.418030 
201.626999 -17.392799 885.979980 
201.585999 -15.962300 884.898010 
232.238007 35.275902 898.013000 
218.166000 47.240898 888.260010 
218.074005 46.273499 887.085999 
224.335007 42.023602 892.744019 
223.287994 42.473801 891.549988 
225.289001 40.488602 892.546997 
225.694000 39.022301 891.664001 
228.781998 37.183102 894.508972 
231.154999 33.347900 894.482971 
232.399994 31.635099 894.835022 
231.009003 31.611401 892.854004 
210.397003 53.438400 879.159973 
210.589996 51.888000 878.539001 
213.080994 49.216702 881.143982 
213.688995 46.962299 880.627991 
213.994003 44.827400 879.799988 
212.664993 46.251301 878.710999 
211.897995 45.773998 877.403992 
221.554993 40.932301 887.471008 
222.459000 41.280899 889.068970 
223.136002 39.598000 888.528992 
224.582001 38.502998 889.588989 
223.505005 38.030701 887.741028 
222.968994 37.252701 886.466980 
226.059998 37.174900 890.497986 
226.860001 33.670799 888.827026 
228.078003 32.670700 889.695007 
227.136002 32.074799 888.088013 
229.507004 31.934000 891.052002 
230.190002 26.774900 888.528015 
233.809998 29.989401 895.499023 
234.102005 28.498501 894.726990 
235.587997 32.715801 900.825012 
235.641006 31.761400 899.875000 
206.957993 50.497002 872.291016 
207.188004 51.982601 873.068970 
209.610001 48.917301 875.525024 
208.791000 46.185101 873.460999 
206.401001 49.280102 871.237976 
211.658005 44.326199 876.455994 
209.391998 44.734600 873.771973 
211.253998 39.991798 874.489990 
210.186996 40.313400 873.460022 
208.962997 43.492699 872.919006 
215.319000 43.216999 880.666992 
216.326996 43.248901 882.039978 
221.035995 38.128201 884.674011 
222.106995 36.917599 885.172974 
224.834000 32.404202 885.552002 
223.315994 32.646900 883.997986 
226.113007 31.678101 886.599976 
227.287994 30.443701 887.242981 
227.257996 27.097500 885.367981 
232.643997 25.186800 890.530029 
231.705994 25.739100 889.726990 
230.761993 24.697701 888.018005 
237.054001 26.415199 897.184021 
236.578995 23.785900 894.552002 
235.089996 24.438601 893.099976 
235.740005 30.693501 898.973022 
238.953995 27.036400 900.435974 
205.464005 45.877201 869.497986 
206.031006 47.247898 870.361023 
209.591003 39.032700 872.583984 
207.957001 43.695301 871.833984 
212.322998 39.800999 875.565979 
213.942001 39.412399 877.177002 
215.304001 39.827202 878.877991 
222.559998 29.359699 881.625977 
222.789001 30.906900 882.554016 
224.093994 24.511200 881.171021 
223.026001 25.023100 880.416992 
225.921005 22.412901 882.047974 
225.201996 24.139099 882.033020 
226.447998 20.605101 881.866028 
229.886002 20.483700 885.007996 
235.932007 17.030199 889.499023 
233.649994 24.745399 891.492004 
234.457993 23.154100 891.466003 
235.516006 21.077299 891.419983 
239.416000 19.104799 894.752991 
238.604996 18.566099 893.419983 
238.623001 17.045200 892.447021 
238.477005 25.840599 898.698975 
239.738007 21.737000 897.101013 
239.858002 25.503799 900.366028 
241.056000 24.694099 901.353027 
242.151001 25.053600 903.299988 
242.554001 20.839800 900.059998 
243.095001 25.734699 905.482971 
246.126007 22.732300 906.942017 
247.057007 21.414600 906.966980 
203.181000 45.070599 867.130005 
204.725998 44.709702 868.593994 
203.302994 41.440102 867.138977 
203.809998 42.981602 867.609985 
205.604996 38.948101 868.973022 
204.054993 36.111198 867.815002 
201.906006 40.150501 866.091003 
209.447006 37.361599 872.166992 
208.376999 35.729500 871.059998 
216.865997 29.070400 876.585999 
222.033997 23.656601 879.179993 
221.354996 25.288700 879.109985 
219.959000 25.997299 878.197998 
224.432007 18.836901 879.679016 
227.906006 16.594500 881.750977 
227.697006 15.082800 881.127991 
230.307999 18.232201 884.455017 
231.768997 16.953899 885.291992 
233.123993 17.279699 886.747986 
234.082993 11.667700 885.289001 
230.899994 13.073500 883.081970 
235.917007 15.785300 888.817017 
237.001999 14.765300 889.385010 
237.940994 15.005500 890.481995 
239.746994 11.487900 890.416992 
237.205994 11.265800 887.900024 
238.781998 15.354200 891.575989 
239.578995 20.505600 895.968018 
240.582001 18.893200 896.015015 
245.123001 18.472799 901.455994 
243.947998 19.525999 900.797974 
246.779007 20.433201 905.552002 
248.626007 16.408100 904.400024 
247.957993 20.069300 906.940979 
250.841003 16.988501 908.213013 
251.384003 15.433400 907.510010 
142.764999 -4.682250 912.903992 
144.798004 -6.383230 916.476013 
139.158005 -1.002310 910.976013 
200.231995 40.788101 864.846008 
199.365997 36.578899 864.867981 
200.272995 38.686600 865.104004 
199.130005 33.635502 865.302979 
198.658005 34.979599 864.796021 
207.132996 34.188499 870.020996 
207.085999 32.132301 869.971008 
206.615005 29.936701 869.729004 
214.268997 27.155300 874.330994 
218.740005 25.089600 877.049988 
218.285004 23.467899 876.393005 
217.087997 24.521999 875.781006 
218.085999 21.769600 875.953979 
222.488007 21.915001 879.046997 
220.869003 19.162500 877.257019 
226.337997 14.223600 879.888977 
224.886002 13.327000 878.702026 
227.473007 13.554500 880.546021 
228.563995 9.469420 880.442993 
230.276993 8.354110 881.437988 
228.636993 7.409930 880.197998 
232.078003 7.436880 882.556030 
235.182007 6.342770 884.629028 
233.962997 6.783080 883.809021 
232.584000 5.233540 882.567017 
240.475998 8.154860 889.572998 
239.669998 7.393600 888.562988 
236.942001 9.670810 887.026001 
244.779999 14.079700 897.495972 
244.014999 15.603900 897.721008 
248.190994 15.428800 902.929016 
256.411987 12.497700 912.856995 
259.681000 10.445100 916.793030 
262.434998 9.059030 921.085022 
151.567001 -14.997600 921.669006 
145.796997 -7.740850 915.953979 
147.054993 -9.397380 914.851990 
146.931000 -9.177200 911.127014 
146.929001 -9.282570 912.580017 
142.227997 -4.265170 911.359985 
133.643997 3.985600 907.346008 
134.787994 2.869570 907.609009 
132.537003 5.020810 906.877014 
133.216003 4.103220 906.036987 
133.399002 3.685860 904.603027 
133.763000 3.231650 902.827026 
134.684006 2.492600 904.106995 
195.625000 33.136902 863.950989 
192.214005 32.744099 862.950989 
202.839005 32.419300 867.392029 
201.404007 29.159201 867.219971 
199.778000 29.063700 866.591980 
198.259995 32.164398 865.255005 
205.869995 27.930099 869.447998 
202.212006 27.624201 867.836975 
204.720001 22.274700 869.601990 
202.544998 22.547800 868.888000 
209.177002 27.152700 871.218018 
214.878998 22.455601 874.130981 
211.529007 23.735500 872.411011 
215.033997 21.111300 874.086975 
217.975006 18.331800 875.374023 
217.591003 16.918800 875.004028 
218.468994 15.402600 875.289001 
216.815002 15.065400 874.463989 
220.057007 15.341100 876.122009 
221.621002 10.748300 876.439026 
224.733002 9.319360 878.017029 
225.084000 7.055460 878.065002 
226.936005 6.341060 879.067993 
225.434006 4.797180 878.216980 
224.412003 3.603130 877.771973 
228.593002 5.246380 879.981995 
230.076004 3.842090 880.812988 
231.436996 4.441140 881.711975 
231.511002 0.140527 881.721985 
228.595993 0.730309 880.072021 
236.339996 5.579090 885.343994 
236.899002 4.053720 885.473022 
237.970001 2.310520 886.000977 
239.315994 0.848905 886.807983 
240.873001 -0.207622 887.830994 
239.242996 -1.423260 886.643982 
242.153000 7.190670 890.710999 
243.740997 6.088620 891.718994 
242.559998 5.051210 890.262024 
241.789001 4.041220 889.293030 
246.315002 9.524820 896.112000 
245.651993 8.133010 894.581970 
246.757996 10.479300 897.237976 
247.723999 9.313240 897.575989 
247.526993 13.403000 900.356018 
248.501999 11.996400 900.487000 
249.606995 10.692600 900.895020 
257.480988 10.373600 912.536011 
263.417999 7.606320 921.289001 
157.194000 -24.363400 927.825012 
154.957993 -20.450300 925.198975 
154.651993 -20.025999 923.614014 
155.464996 -21.432301 923.453003 
152.406998 -16.327400 922.059998 
153.621002 -18.185101 918.495972 
154.574005 -19.652800 918.979980 
150.408005 -13.305600 913.528015 
150.897995 -13.580100 912.051025 
151.384003 -13.543500 910.064026 
137.356003 0.267468 906.786011 
135.985992 1.380110 903.671997 
138.089005 0.001084 901.286987 
132.701004 4.089430 901.616028 
134.011993 3.072200 900.934021 
196.557007 31.726601 864.713013 
194.725998 28.618799 865.161011 
192.962997 28.495001 864.802979 
191.367004 31.239901 863.328979 
198.904999 27.525499 866.666992 
195.582001 27.231800 865.843018 
198.742996 23.473700 867.700989 
197.011993 23.108400 867.458984 
194.735992 25.674601 866.203003 
200.998001 20.930799 868.825989 
200.393005 23.028099 868.206970 
201.654007 18.829300 869.408020 
199.434006 19.276100 868.924011 
203.367996 18.483500 869.823975 
207.919998 22.972700 870.729980 
205.044998 20.834900 869.898987 
208.376007 19.999100 871.093994 
206.649002 20.209801 870.481018 
207.934998 21.516100 870.828979 
210.136993 19.657900 871.770996 
214.235001 15.960400 873.395996 
210.697006 15.213100 872.135986 
211.699997 20.876900 872.424011 
215.235001 14.585300 873.760010 
214.210999 11.088400 873.408997 
212.386002 10.577100 872.927002 
210.059006 13.490600 872.072021 
218.507996 10.771100 874.973999 
215.371002 9.724050 873.833984 
218.292007 7.020770 874.984985 
217.207001 6.391940 874.684021 
220.667999 5.416160 876.018005 
219.701996 6.689860 875.536987 
219.830002 3.682480 875.914001 
225.069000 -2.390080 879.119995 
223.570999 -1.985830 878.465027 
230.207993 -4.202840 881.755981 
228.251007 -3.695840 880.757019 
234.384003 -1.294920 883.520996 
239.033005 -3.661060 886.581970 
240.250000 -5.285870 887.502014 
242.126007 -0.839591 888.692017 
243.285004 -1.708300 889.486023 
243.621994 -4.030170 889.674011 
245.138000 6.485180 893.224976 
248.345001 3.978840 895.328003 
247.158005 3.590990 893.971008 
246.807007 2.015120 893.094971 
249.229004 4.750860 896.632019 
249.578995 3.348410 896.374023 
251.173996 2.327610 897.708984 
250.093002 1.175040 896.075012 
249.016998 0.005494 894.624023 
250.712006 6.626070 899.432007 
252.061996 6.788880 901.270020 
252.119995 5.329580 900.408020 
252.839005 7.827830 903.064026 
254.212997 6.909160 904.317017 
257.295990 7.552550 909.554993 
260.032013 6.963360 913.687988 
262.076996 2.464610 913.187012 
263.110992 1.371060 914.044983 
263.727997 -0.855990 913.327026 
263.750000 4.456940 918.117004 
264.394989 2.896220 917.754028 
267.269989 -0.809840 919.681030 
266.348999 -2.327140 916.666992 
265.540009 4.436100 921.846985 
266.298004 2.921400 921.638977 
268.015991 2.076110 924.536011 
160.658005 -30.585899 930.411011 
160.994995 -31.110800 932.140991 
160.082001 -29.573700 928.229980 
161.184998 -31.413700 928.244019 
157.524994 -25.058901 925.848022 
158.028000 -25.934900 927.718018 
157.139008 -24.337400 924.367004 
159.565002 -28.306999 924.158997 
156.080002 -22.322701 921.461975 
156.612000 -23.366199 923.200989 
155.755997 -21.528099 919.583984 
155.662003 -20.880501 917.304993 
155.671997 -20.476200 915.859985 
158.358994 -24.836201 917.900024 
155.789993 -20.130899 914.408020 
155.035004 -17.143900 909.473022 
149.072998 -10.497900 907.708984 
149.197998 -10.060600 906.218994 
150.729004 -10.759500 904.867981 
146.988007 -7.677260 904.825989 
148.432999 -6.713330 900.518982 
149.417999 -7.658820 901.007996 
135.378998 2.111820 900.322021 
134.589005 2.865280 899.039978 
135.376007 2.782500 896.934021 
136.011993 2.724030 895.778992 
191.988998 27.001400 865.221985 
188.076004 27.275299 864.557983 
187.522995 28.663500 863.796021 
196.162994 21.103001 867.955994 
191.921997 20.840500 867.710999 
190.985992 22.388300 867.036987 
192.893005 25.550200 865.945984 
199.671005 14.103100 870.267029 
195.707993 14.259400 870.101990 
194.804993 15.975100 869.536011 
197.235992 19.385201 868.604004 
205.110001 19.178400 870.143005 
206.996994 14.649400 871.205017 
203.548996 14.021500 870.682983 
208.210999 13.118600 871.668030 
206.591003 9.254680 872.043030 
204.554001 9.041990 871.888000 
202.496002 12.428900 870.906982 
207.828995 7.596800 872.551025 
210.962997 4.644110 873.643005 
209.205002 5.940440 873.101013 
207.011993 5.542920 872.987000 
216.218002 5.579570 874.507996 
214.302994 4.564710 874.234985 
218.115997 -0.779498 876.495972 
216.761993 0.091130 875.918030 
226.360992 -3.085410 879.814026 
226.632996 -5.168570 880.580994 
225.171997 -6.699600 880.684998 
231.656006 -4.129370 882.432007 
229.419006 -8.809040 882.960999 
230.270004 -9.691670 883.640015 
229.751007 -11.234300 884.155029 
235.298996 -4.957450 884.520996 
234.667007 -7.044700 884.655029 
233.972000 -9.123130 884.950012 
234.931000 -10.370200 885.827026 
236.451004 -10.898900 886.728027 
236.843994 -14.427300 888.369995 
235.128006 -15.273400 888.085022 
232.378006 -13.797300 886.310974 
242.184006 -5.460610 888.763000 
241.542999 -10.856800 889.382019 
238.173004 -9.275840 887.078003 
244.074997 -6.188940 890.093994 
245.376999 -10.075800 891.523987 
245.623993 -12.158900 892.174988 
246.294998 0.506070 892.231995 
247.673996 0.428155 893.460022 
247.600998 -4.273170 892.690979 
247.554001 -6.104290 892.624023 
252.378998 3.187710 899.536011 
255.516006 -1.337840 901.327026 
252.923996 -2.911040 897.864990 
253.610001 3.797460 901.418030 
256.394012 3.396920 904.978027 
257.510986 1.568940 905.426025 
258.924011 1.531450 907.460022 
258.683990 -0.407973 905.929993 
261.070007 0.300866 909.895020 
259.983002 1.284200 908.893982 
262.643005 -3.953020 909.661987 
264.237000 -2.530950 912.961975 
265.595001 -6.285290 912.791016 
266.093994 -7.886950 912.718018 
267.399994 -3.228840 917.827026 
267.683990 -2.234320 919.181030 
266.687988 -3.770830 916.158997 
269.523010 -6.707600 919.025024 
268.858002 -7.410880 917.375000 
268.447998 -8.571650 915.991028 
268.928009 -0.872073 923.038025 
269.860992 -1.484380 924.460022 
269.713989 -2.545300 922.979004 
270.536987 -1.683750 925.840027 
271.247986 -2.103100 927.104004 
272.265015 -2.656410 929.106018 
272.170990 -3.752840 927.344971 
168.352997 -43.141102 942.958008 
168.807999 -43.787701 944.544983 
165.533005 -38.555698 940.242004 
166.348007 -39.942299 940.648987 
164.097000 -36.370800 936.043030 
165.201004 -38.187401 935.421021 
162.647995 -33.994900 932.898987 
161.610001 -32.129501 933.432983 
163.179001 -34.828602 930.846985 
162.822006 -34.151199 929.398987 
165.041000 -37.217899 927.952026 
165.268997 -38.021900 931.171997 
161.951004 -32.346802 926.127991 
162.365005 -33.297901 928.148010 
161.804001 -31.621300 923.833984 
162.964005 -33.485001 924.482971 
163.914993 -34.450600 923.265015 
160.744995 -29.849800 923.015991 
160.186005 -27.225599 917.757019 
161.205994 -28.955601 918.612000 
162.485001 -30.269199 917.864990 
159.110992 -25.464300 916.934998 
160.401001 -26.479000 915.609985 
156.063995 -17.937799 908.919983 
157.776993 -19.137199 907.992004 
158.485992 -17.343800 904.447021 
158.309006 -18.201500 905.833008 
159.535995 -20.021099 906.754028 
151.912994 -12.104400 905.489990 
152.363007 -11.432600 903.627014 
152.792999 -10.604700 901.809998 
153.528000 -11.865000 902.810974 
153.738007 -9.966820 899.968018 
154.184006 -8.161400 897.362000 
154.100006 -9.043700 898.487976 
155.143005 -10.243100 899.065002 
145.059998 -5.400620 902.685974 
144.837006 -3.723380 899.164978 
148.347000 -5.870420 899.172974 
140.992996 -0.778121 897.648987 
142.412003 -1.542550 897.556030 
139.733994 0.094956 897.247986 
139.723999 1.997480 892.991028 
137.914001 3.768560 891.033020 
138.729996 2.964020 891.943970 
140.524002 2.540640 891.406982 
189.056000 22.260300 867.010986 
186.802994 25.552401 865.304016 
188.078003 20.747999 867.697998 
184.292007 20.532101 867.903992 
183.205002 21.763300 867.260010 
184.574997 25.265699 865.318970 
192.968994 15.907500 869.580017 
191.153000 19.188801 868.353027 
191.830994 14.510200 870.156982 
188.091003 14.776900 870.388000 
187.197006 16.284800 869.804016 
189.085007 19.238600 868.361023 
200.449997 12.389300 870.768005 
198.126999 8.841040 871.822021 
195.908997 9.143110 871.835022 
194.628006 12.557100 870.706970 
203.612000 7.194930 872.327026 
199.197006 6.975950 872.414978 
204.806000 5.477270 872.879028 
198.233994 5.030860 873.182983 
205.889008 3.569240 873.525024 
204.460007 -0.763129 875.231018 
212.565994 3.976040 874.047974 
209.279007 -0.295608 875.096008 
209.740997 -2.115120 875.900024 
209.151001 -3.902210 876.741028 
215.216995 -0.072120 875.677979 
214.255005 -1.943670 876.226013 
212.988007 -5.872440 877.973022 
212.130005 -7.479220 878.843018 
218.899994 -2.137020 877.153015 
217.934006 -4.049560 877.719971 
216.880005 -5.921330 878.429993 
218.477005 -9.817490 880.875000 
217.024002 -9.442410 880.458008 
215.507004 -10.176600 880.778015 
223.819000 -9.548540 881.681030 
224.268005 -8.381180 881.195007 
223.716995 -10.806000 882.351990 
223.240005 -12.734700 883.426025 
229.235001 -12.549500 884.655029 
229.289993 -13.857400 885.387024 
234.895996 -16.863400 888.862976 
231.779999 -18.260099 888.744995 
230.483002 -17.539801 887.945007 
230.681000 -14.489400 886.138977 
241.511002 -12.468700 889.867004 
238.516998 -14.909200 889.335999 
242.699005 -13.390100 890.835999 
240.893997 -17.856300 891.815979 
244.076996 -13.632700 891.695007 
247.792999 -7.771110 892.885986 
249.638000 -10.588600 894.593994 
251.636002 -6.053840 896.094971 
250.623993 -7.210580 895.145020 
253.035995 -5.145320 897.549011 
255.671997 -7.098200 899.987976 
255.567001 -8.840540 899.705017 
252.757004 -10.773100 897.129028 
256.652008 -5.783910 901.294006 
258.113007 -6.406420 902.833984 
259.579987 -6.700660 904.505981 
258.808014 -8.450280 903.202026 
260.071014 -4.727400 905.775024 
261.016998 -6.808830 906.250977 
261.915009 -8.930800 906.731995 
264.601013 -12.030700 909.205017 
261.539001 -10.378400 905.948975 
270.382996 -9.702850 918.539001 
269.884003 -8.292010 918.570984 
268.808014 -10.085100 915.742981 
270.579010 -4.209570 923.168030 
272.167999 -7.631530 923.379028 
272.089996 -8.678570 922.380005 
273.002014 -5.516390 927.297974 
273.759003 -6.120170 928.476013 
275.868011 -9.764370 929.663025 
275.303009 -10.147200 927.945007 
171.764008 -48.259300 945.114014 
172.227005 -48.995602 947.190979 
168.772003 -43.804699 941.747009 
168.141998 -42.625099 936.888977 
166.401993 -39.986401 934.815002 
166.595001 -40.104801 933.065979 
166.332993 -39.552200 931.486023 
167.949005 -41.152199 928.809998 
168.940994 -42.408699 929.153992 
168.994003 -43.124401 932.341980 
165.796997 -37.944099 926.651001 
167.822006 -40.607601 927.197998 
165.563995 -37.217602 925.090027 
167.389008 -38.421799 922.291992 
168.615997 -39.859402 922.437988 
168.796005 -41.359402 925.903015 
164.533005 -34.567799 921.401001 
167.104996 -37.395401 920.767029 
164.186996 -33.485699 919.956970 
165.791000 -33.877701 917.122009 
167.917999 -37.171001 918.687012 
163.457993 -30.357100 915.898987 
164.886993 -30.872400 914.232971 
165.781006 -30.937500 913.065002 
164.992004 -28.070601 910.465027 
168.544006 -27.160601 906.156006 
169.078995 -28.757900 907.416016 
166.419998 -29.398399 910.466980 
160.841995 -21.859900 907.536987 
161.393005 -20.830799 905.551025 
162.408997 -20.270201 903.825012 
162.848007 -21.620399 904.955017 
159.089005 -16.744900 903.025024 
159.889999 -12.380200 897.609985 
160.893005 -9.531690 894.268982 
153.977997 -7.233640 896.424988 
153.746002 -5.777760 894.914978 
155.147003 -6.790600 895.161987 
144.389999 -2.670020 897.594971 
146.876007 -2.239020 894.752014 
148.600006 -3.111790 894.833984 
149.294998 -5.502320 897.718018 
142.953995 0.627290 892.981018 
146.457001 -1.048040 893.296021 
142.285004 1.742960 891.609985 
147.059998 1.959550 889.096985 
147.880005 -0.575969 891.887024 
141.720001 2.995190 889.981995 
141.330002 4.200630 888.375000 
145.406998 4.718590 886.343018 
181.423004 21.383900 867.521973 
178.975006 23.126801 866.456970 
177.934006 19.399799 868.901978 
176.796997 19.955099 868.593994 
185.358994 16.351999 869.960999 
183.473999 19.149300 868.690002 
184.473999 15.000300 870.737976 
180.848007 15.166400 871.161011 
179.720993 16.505400 870.533997 
192.651993 12.870000 870.718994 
190.578995 10.043100 872.065979 
188.718994 10.237100 872.271973 
187.141006 13.412200 871.117004 
194.335999 7.929400 872.429993 
194.313995 6.006390 873.197998 
195.983002 4.549500 873.593018 
196.959000 1.060300 874.984985 
197.505005 3.080120 874.033997 
200.582993 -0.868644 875.500000 
197.748993 -2.683700 876.728027 
195.352997 0.750398 875.351990 
204.703003 -2.350780 875.976990 
202.526001 -1.750550 875.784973 
205.789001 -3.249190 876.400024 
207.078995 -3.938900 876.739990 
206.082993 -7.295450 878.682007 
204.367004 -7.568490 878.927979 
211.442001 -9.012740 879.773010 
210.240005 -7.555400 878.818970 
212.210007 -10.422100 880.737976 
209.205002 -12.971900 882.494995 
207.011993 -10.457500 880.723999 
215.274994 -12.054800 882.041992 
213.925995 -10.995000 881.215027 
214.925995 -13.773900 883.263977 
225.115997 -13.539000 884.255981 
223.279999 -14.602400 884.653015 
221.501007 -15.703600 885.205994 
224.225006 -19.563499 888.359985 
222.270996 -19.017700 887.762024 
229.013000 -18.179199 888.049011 
226.537994 -16.396900 886.369995 
225.050003 -21.142700 889.643982 
228.585999 -22.570999 891.145996 
227.117996 -21.983500 890.512024 
235.546997 -20.642700 891.369019 
233.992996 -21.167900 891.262024 
231.550995 -19.606501 889.585999 
240.197006 -19.201900 892.203003 
241.126007 -20.232401 893.117981 
239.110001 -20.379499 892.419983 
248.460999 -15.714100 894.976990 
249.371994 -16.519699 895.786987 
250.923004 -17.279699 896.989990 
256.714996 -13.083300 900.781006 
255.582993 -14.102200 899.859009 
252.595001 -12.635300 897.205017 
262.342010 -14.959700 906.203979 
265.558990 -11.757100 910.479004 
265.364990 -13.259600 909.840027 
270.032013 -20.459499 913.702026 
269.253998 -21.139200 912.659973 
271.264008 -10.153300 919.797974 
271.009003 -14.331100 917.114990 
271.984985 -9.946480 921.252991 
274.246002 -13.104500 923.374023 
275.432007 -13.735100 925.268982 
275.006012 -15.166300 923.460999 
275.536011 -11.998500 926.833008 
276.546997 -13.988300 927.385986 
277.598999 -14.322600 929.403015 
277.433990 -15.948800 927.737000 
276.497986 -9.783870 931.218994 
277.341003 -9.769850 933.471985 
277.628998 -11.565400 932.112000 
277.950012 -13.063700 931.359009 
278.273010 -10.188900 935.585999 
175.923004 -54.574402 952.492004 
173.462997 -50.813900 947.776978 
174.507004 -52.133400 946.593018 
174.785995 -52.192001 944.536987 
176.707993 -55.237801 948.739014 
171.807007 -47.027100 935.536987 
170.035004 -44.459599 932.835022 
172.119003 -46.229599 930.588013 
173.237000 -47.521999 931.190979 
172.947998 -48.099300 934.632019 
169.919006 -43.207901 927.963989 
172.192993 -45.831501 928.880981 
169.884003 -42.688202 926.328979 
172.266998 -44.206100 923.960999 
173.229004 -45.304401 924.508972 
170.100006 -40.771198 921.070984 
172.449997 -43.627300 922.280029 
172.820999 -41.066898 917.406006 
174.080002 -42.390099 917.781982 
173.809006 -44.228600 921.117004 
169.585007 -36.797798 915.658020 
169.026993 -37.115200 916.828979 
166.658005 -30.914900 911.976013 
169.845001 -33.417198 911.557007 
169.858002 -34.750702 912.955994 
170.854004 -29.953699 907.357971 
171.457001 -33.074402 909.942017 
174.817993 -31.212200 906.271973 
175.365005 -32.628700 907.249023 
173.151001 -34.123501 909.781982 
166.923996 -24.249399 904.283997 
167.613998 -25.480499 905.075012 
165.460007 -23.285101 904.421021 
161.727005 -18.408600 902.356995 
163.658005 -19.730801 902.086975 
160.380005 -17.503700 902.614014 
162.223999 -12.779900 896.312988 
162.766006 -14.376600 897.403992 
161.112000 -13.198400 897.497986 
161.994995 -11.776500 895.562988 
162.391998 -9.466770 893.296997 
162.022003 -10.752900 894.637024 
163.354004 -8.540310 891.960022 
163.171997 -7.064490 890.869019 
164.748001 -7.819440 890.604004 
156.850006 -7.490460 894.833984 
149.936005 -2.742630 893.544006 
153.285995 -4.440710 893.689026 
149.613998 -1.477070 892.156006 
152.610001 -0.718177 890.007996 
154.427994 -1.723800 890.299011 
152.473999 0.825364 888.479980 
151.772995 3.487340 886.043030 
151.990005 2.402310 887.054993 
154.044998 1.525250 887.294983 
148.434998 7.184730 883.028015 
147.278000 4.765260 885.818970 
175.559998 20.441299 868.304993 
173.903000 19.548401 869.005005 
173.772003 17.993200 870.146973 
172.016006 18.851299 869.617981 
174.951004 17.279100 870.554016 
178.645004 18.282301 869.562012 
177.891998 16.676901 870.642029 
177.300995 15.256300 871.616028 
176.095001 16.495399 870.966003 
178.326996 13.854400 872.320984 
176.929001 11.243200 874.168030 
175.302994 11.304900 874.486023 
173.350006 13.698300 873.273010 
185.378998 13.569600 871.304993 
183.774002 11.024400 872.830017 
182.085007 11.071400 873.153015 
180.085999 13.827500 872.038025 
187.477997 9.096920 872.997009 
187.283005 7.542100 873.739014 
189.011993 6.015000 874.073975 
186.979004 5.524890 874.731995 
190.763000 2.792860 875.189026 
190.761993 4.635160 874.349976 
189.917999 1.615930 875.916992 
192.382996 -5.616800 879.205017 
201.279007 -5.594760 877.956970 
197.988007 -4.191290 877.517029 
201.324005 -7.069580 878.838013 
197.281998 -8.075670 879.908997 
196.602005 -5.036100 878.184998 
204.076004 -9.312160 880.067993 
202.735992 -8.233740 879.453979 
205.057007 -10.552300 880.853027 
203.841995 -13.625500 883.068970 
199.563995 -11.613900 881.956970 
208.764008 -14.413600 883.568970 
209.998993 -15.888000 884.713013 
208.160995 -15.970400 884.755005 
207.100006 -17.365801 885.833008 
211.619995 -15.336500 884.320007 
211.511993 -16.751801 885.422974 
222.218002 -25.045500 892.393005 
221.779999 -26.826500 893.679993 
233.270996 -22.676100 892.094971 
229.660004 -23.598301 892.052979 
233.643005 -26.529699 894.719971 
229.658005 -25.109501 893.127014 
237.115005 -20.517500 891.796021 
246.960007 -21.246099 896.125000 
249.214996 -23.658001 898.080994 
248.171997 -22.700701 897.250977 
255.567993 -16.244101 900.120972 
252.389008 -18.104900 898.171021 
256.536987 -21.532200 901.718018 
254.649002 -22.368799 900.651978 
252.125000 -19.989201 898.495972 
258.041992 -12.893700 902.021973 
259.169006 -14.558300 903.109985 
260.246002 -16.232500 904.132996 
262.303009 -18.456200 906.026001 
262.325012 -20.362400 906.052979 
262.184998 -22.196301 905.973022 
261.104004 -23.541100 905.206970 
264.380005 -17.129601 908.104004 
265.330994 -18.147200 908.968994 
265.523010 -19.723499 908.997009 
268.381012 -21.750601 911.612976 
268.339996 -23.996799 911.237976 
268.179993 -25.657000 910.882019 
275.742004 -17.265200 923.515015 
276.576996 -17.919100 924.659973 
278.579010 -21.066601 926.489990 
276.602997 -22.077299 922.351990 
278.875000 -19.886801 927.859985 
279.472992 -21.569901 927.918030 
280.101990 -23.197500 928.086975 
280.093994 -15.381900 934.317017 
280.032013 -18.261900 931.562012 
282.364990 -18.632099 936.906982 
282.299988 -20.065599 935.369995 
283.980988 -18.258101 942.187012 
178.354996 -57.894001 953.784973 
178.925995 -57.763100 948.228027 
177.841003 -56.549801 948.403015 
175.485001 -52.638699 942.460999 
176.386993 -53.233601 940.651978 
176.451004 -52.826000 938.810974 
179.059998 -54.892101 937.150024 
180.056000 -56.132099 938.062988 
179.235992 -56.402401 941.395996 
174.276001 -49.934101 936.403015 
175.270996 -51.348301 937.877014 
173.649994 -49.054798 935.505005 
177.225006 -50.989101 930.624023 
174.408997 -46.327599 924.530029 
175.567001 -46.635300 923.114990 
176.063995 -47.756199 924.773987 
175.647003 -42.686798 916.583984 
177.985001 -45.132000 917.671021 
175.192001 -45.569302 921.538025 
169.804993 -36.141602 914.588013 
175.029999 -38.628399 912.700012 
175.326004 -39.651600 913.491028 
176.201004 -37.974400 911.385010 
177.167999 -37.014500 910.060974 
176.992004 -33.304600 907.083984 
178.414993 -36.293400 908.909973 
178.089996 -32.516998 905.976990 
181.162994 -33.982899 906.057983 
179.919006 -36.803398 908.706970 
175.914993 -30.153999 904.815002 
173.123993 -27.252701 903.403992 
173.886993 -26.385799 902.148010 
171.595993 -23.408001 900.328003 
169.593994 -23.052999 901.168030 
172.132996 -22.675100 899.271973 
172.656998 -21.902100 898.192017 
172.042007 -20.681499 897.302002 
173.992996 -21.074900 896.643005 
167.384003 -19.205999 898.731018 
168.287994 -20.537800 899.448975 
163.313995 -16.138901 898.677979 
166.667007 -17.655899 897.721008 
166.423996 -13.986900 894.578003 
167.604996 -16.946400 896.434021 
167.557999 -13.331600 893.320984 
171.087006 -14.921300 892.557007 
171.528000 -16.702999 893.838013 
165.960007 -7.442070 889.658997 
169.248001 -10.279700 889.956970 
166.983002 -11.809300 892.434021 
160.466003 -3.414320 889.245972 
159.692001 -1.986360 888.396973 
158.873993 -0.556674 887.521973 
158.391998 0.733937 886.606995 
159.638000 2.060680 885.106995 
155.910004 5.497600 883.213989 
157.610992 6.339390 882.116028 
150.436005 6.780470 883.096985 
152.070007 7.517890 882.104004 
152.106995 9.051820 880.625000 
169.192993 16.911400 871.349976 
170.343994 17.744301 870.588013 
174.610001 10.157000 875.364990 
171.845001 10.127800 876.036987 
171.645004 13.684900 873.564026 
181.358994 9.729680 874.007996 
177.832001 9.879650 874.758972 
182.417999 8.306200 874.482971 
180.789993 5.327200 876.405029 
178.682007 5.595590 876.864990 
186.292999 3.706330 875.745972 
182.115005 3.828690 876.780029 
187.600006 1.861120 876.314026 
185.343002 -0.873912 878.210999 
183.427994 -0.586406 878.585999 
189.250000 -6.908950 880.559021 
184.699005 -3.944790 879.971008 
186.195999 -3.213720 879.195984 
192.617004 -7.455210 880.242004 
192.621994 -9.375590 881.422974 
190.753006 -8.278900 881.080994 
198.703995 -14.408100 883.989990 
199.106995 -13.308200 883.169983 
197.264999 -12.003400 882.468994 
208.761993 -19.501101 887.554016 
