ply
format ascii 1.0
comment Created by CloudCompare v2.10.3 (Zephyrus)
comment Created 07.02.22 20:36
obj_info Generated by CloudCompare!
element vertex 1878
property float x
property float y
property float z
end_header
218.63 -25.2472 892.418 
216.455 -25.3622 892.462 
215.779 -24.7328 891.959 
216.72 -23.007 890.617 
216.813 -28.1036 894.508 
232.095 -27.9427 895.373 
229.869 -28.0429 895.148 
228.311 -28.5951 895.341 
229.156 -28.674 895.479 
235.101 -23.0419 892.781 
236.106 -25.4057 894.512 
237.99 -26.5574 895.619 
237.029 -26.8052 895.547 
239.234 -28.0943 896.731 
240.416 -22.8201 894.229 
240.931 -25.2245 895.665 
238.501 -25.5828 895.194 
241.536 -26.0614 896.266 
240.292 -28.0677 896.953 
244.313 -29.608 898.635 
244.958 -31.4255 899.537 
244.326 -32.1983 899.704 
245.435 -22.3174 895.885 
246.643 -24.0728 897.118 
245.983 -25.1091 897.285 
243.496 -25.0411 896.378 
245.945 -31.6221 899.859 
257.993 -15.8014 902.096 
257.134 -16.2106 901.398 
257.613 -18.8765 902.098 
256.902 -18.3423 901.474 
264.396 -21.7557 907.821 
264.647 -22.6302 908.006 
267.08 -25.9307 909.892 
267.754 -27.8504 910.322 
268.948 -28.8358 911.249 
270.363 -30.5752 912.325 
270.247 -31.4825 912.174 
272.974 -25.0967 915.998 
273.099 -26.2159 915.841 
271.788 -27.3857 914.117 
272.192 -20.355 916.46 
272.025 -20.9342 916.046 
273.314 -18.9491 918.603 
274.604 -20.832 919.746 
274.475 -21.819 919.132 
276.058 -22.8557 921.09 
275.532 -23.1664 920.142 
277.412 -24.4609 922.503 
278.386 -24.5772 924.086 
277.903 -24.22 923.445 
281.775 -28.396 928.019 
281.6 -29.0905 927.279 
283.021 -24.758 933.143 
283.915 -27.2758 933.21 
283.617 -27.8387 932.122 
282.45 -26.3832 930.685 
280.46 -19.8432 931.25 
282.231 -22.2303 933.35 
283.796 -22.0425 937.367 
283.249 -21.5506 936.406 
284.367 -24.9759 936.179 
283.212 -24.0401 934.162 
282.83 -22.8511 934.241 
281.392 -16.0733 937.009 
283.37 -17.9094 940.637 
283.104 -17.9182 939.799 
283.693 -20.566 938.537 
283.322 -19.7839 938.319 
181.581 -62.2048 957.884 
181.465 -61.9945 957.099 
176.65 -55.3598 950.212 
178.068 -57.1313 950.326 
178.369 -57.5642 950.821 
177.494 -56.6992 952.651 
179.366 -58.6251 950.18 
178.894 -58.2237 951.07 
180 -59.844 953.386 
179.365 -59.0771 953.252 
180.279 -59.0674 947.406 
176.215 -51.9387 936.456 
180.453 -53.4675 930.306 
179.943 -53.0253 930.195 
181.223 -53.5103 929.117 
181.062 -53.0524 928.391 
175.422 -47.9332 926.466 
176.807 -49.4873 927.581 
178.478 -48.7637 923.187 
177.692 -48.6565 924.092 
180.382 -50.1587 923.495 
180.57 -50.7758 924.454 
177.327 -46.517 920.425 
177.651 -40.6018 912.931 
176.928 -40.6122 913.372 
179.615 -41.9512 913.122 
178.499 -38.2806 910.479 
179.213 -38.7084 910.509 
180.049 -38.6086 910.075 
181.243 -35.8477 907.488 
180.689 -36.2082 907.961 
183.529 -35.3984 906.388 
177.975 -29.733 903.574 
178.956 -29.9268 903.375 
175.372 -27.2203 902.269 
176.106 -27.8238 902.534 
175.641 -25.6424 900.551 
175.887 -22.9167 897.599 
169.903 -19.4293 897.325 
176.042 -17.372 892.073 
161.758 -0.90908 886.704 
161.162 -1.26295 887.216 
163.729 -1.94145 886.681 
165.549 2.67787 882.739 
166.191 2.01724 882.972 
159.748 4.73447 882.928 
159.896 3.74287 883.681 
161.936 5.48118 881.769 
162.935 4.90468 881.938 
166.976 14.6985 873.417 
167.922 15.229 872.863 
167.127 13.7294 874.205 
165.238 12.8204 875.234 
164.155 13.1551 875.104 
173.825 9.37005 876.047 
175.736 8.37518 876.156 
175.379 7.89431 876.53 
184.069 -7.34966 882.049 
183.233 -7.16108 882.174 
180.514 -2.12959 880.243 
179.865 -1.90599 880.334 
184.731 -7.88554 882.187 
193.356 -11.8224 882.89 
194.155 -13.8101 884.132 
193.838 -14.6022 884.745 
193.19 -13.79 884.27 
207.155 -21.0736 888.804 
207.681 -20.6043 888.429 
204.845 -21.1481 888.864 
204.287 -20.5963 888.423 
210.871 -24.4345 891.616 
213.436 -23.4261 890.867 
212.791 -25.4313 892.448 
217.635 -29.7508 895.648 
218.429 -29.7467 895.645 
225.941 -33.2868 898.023 
225.959 -32.4724 897.557 
236.833 -30.3982 897.505 
237.977 -31.1397 898.064 
237.426 -30.7238 897.767 
237.963 -32.143 898.559 
243.178 -34.7633 900.542 
268.002 -30.165 910.426 
267.115 -32.7638 909.853 
266.038 -31.1431 909.024 
269.6 -31.8165 911.639 
274.153 -28.717 916.42 
277.231 -28.1775 920.599 
283.975 -21.4388 938.434 
182.92 -63.6754 956.777 
182.7 -63.3169 956.027 
184.412 -65.3406 956.339 
181.419 -56.6238 936.075 
182.016 -57.3313 936.551 
181.152 -56.7852 937.106 
182.528 -57.9225 936.911 
182.648 -55.606 931.356 
184.738 -56.9225 930.912 
184.044 -54.8418 927.863 
181.259 -48.7634 920.161 
179.73 -45.2065 916.448 
180.322 -44.9623 915.789 
182.161 -40.8768 911.065 
181.04 -41.864 912.364 
184.897 -42.9081 911.709 
168.955 -4.87876 886.36 
171.002 -5.86156 886.04 
171.139 -6.88084 886.635 
172.807 -0.455424 882.06 
163.848 6.66773 880.381 
164.124 5.90409 880.876 
165.438 8.01034 879 
166.346 7.7808 878.954 
159.76 7.09189 881.016 
161.83 6.4052 881.081 
154.91 10.2821 879.066 
163.347 12.5767 875.722 
161.084 13.1486 875.531 
164.994 8.97999 878.367 
165.718 9.67225 877.686 
162.491 9.53887 878.435 
162.08 10.4762 877.731 
163.678 11.6906 876.43 
164.761 11.4113 876.482 
183.508 -12.8574 885.723 
185.538 -13.7986 885.844 
197.064 -15.2636 884.785 
197.104 -17.2143 886.242 
207.077 -26.0119 892.857 
211.037 -27.3964 893.943 
210.786 -26.6348 893.355 
209.898 -28.9361 895.108 
208.99 -28.9115 895.108 
216.527 -31.0805 896.526 
220.567 -33.208 897.813 
220.052 -35.1788 898.943 
219.117 -35.4378 899.098 
225.073 -33.6558 898.188 
224.099 -33.3954 897.999 
223.876 -36.5557 899.722 
221.334 -36.5107 899.672 
220.784 -35.7908 899.28 
224.416 -37.4607 900.205 
220.881 -37.4121 900.157 
234.025 -36.3635 900.181 
233.352 -36.7785 900.327 
235.371 -37.6379 900.897 
246.047 -32.9557 900.399 
247.983 -42.2541 904.916 
246.986 -44.0921 905.739 
258.495 -41.252 907.528 
257.536 -41.4576 907.269 
264.314 -34.8298 908.364 
263.336 -34.9074 907.83 
265.181 -36.9826 909.257 
264.445 -37.9451 909.078 
267.283 -34.6298 910.131 
266.804 -33.6985 909.725 
266.244 -36.9577 909.848 
264.83 -33.8018 908.507 
266.626 -37.7611 910.219 
268.493 -39.3689 911.629 
266.274 -39.37 910.387 
266.769 -38.5008 910.454 
280.333 -33.7403 923.083 
280.217 -34.7061 922.62 
282.821 -30.2215 928.879 
282.447 -30.4703 928.029 
185.631 -65.9368 952.593 
187.057 -66.9916 950.6 
186.646 -66.3923 950.085 
184.864 -59.2084 935.332 
187.53 -61.1509 934.91 
185.601 -58.8929 933.503 
187.614 -59.9813 932.685 
185.049 -56.1326 929.008 
188.654 -56.283 925.496 
183 -49.8643 920.406 
187.612 -51.1958 919.049 
188.446 -52.9124 920.768 
187.748 -53.0051 921.394 
186.058 -51.4078 920.363 
185.425 -45.5218 913.839 
184.588 -45.4693 914.148 
187.224 -47.1616 914.673 
187.026 -47.9337 915.557 
191.283 -46.5713 912.465 
190.816 -45.6267 911.838 
189.473 -47.587 914.12 
188.318 -47.0142 914.06 
192.52 -47.0244 912.372 
193.305 -49.1187 913.914 
192.4 -49.5424 914.717 
189.82 -48.5184 914.875 
189.967 -26.1527 895.796 
179.86 -20.6707 893.553 
180.735 -20.886 893.434 
189.429 -18.6096 888.707 
188.381 -19.9015 890.09 
182.119 -15.3978 888.035 
183.538 -14.2877 886.751 
174.728 -3.6101 883.09 
174.13 -4.09722 883.607 
176.223 -4.38866 882.949 
175.717 -3.68021 882.745 
173.701 -0.859344 881.95 
171.008 8.17233 877.525 
167.152 7.81072 878.738 
168.655 6.40204 879.306 
168.676 5.75869 879.721 
160.343 12.5789 876.155 
160.927 10.843 877.618 
162.661 6.99269 880.424 
161.763 8.86865 879.13 
186.071 -21.9847 892.723 
196.476 -19.0398 887.765 
196.23 -20.7955 889.264 
195.402 -22.3133 890.732 
194.927 -23.8826 892.264 
193.85 -23.9035 892.516 
192.442 -22.3481 891.366 
192.824 -21.6361 890.628 
195.77 -24.5226 892.69 
196.403 -22.297 890.544 
202.621 -24.368 891.636 
202.989 -23.8167 891.145 
207.771 -34.8198 899.428 
206.696 -34.4565 899.316 
206.115 -32.6468 898.09 
211.686 -36.8063 900.269 
212.031 -36.0893 899.805 
213.048 -38.2279 900.979 
216.152 -40.9609 902.25 
217.065 -41.1004 902.263 
225.539 -37.7529 900.383 
225.916 -40.0452 901.558 
225.062 -40.6899 901.872 
228.543 -37.9125 900.58 
226.421 -37.1407 900.1 
228.906 -39.8946 901.581 
232.719 -41.0191 902.347 
231.549 -42.729 903.155 
230.648 -42.7924 903.138 
238.658 -42.4942 903.607 
238.415 -43.4228 904.094 
235.914 -44.2004 904.282 
245.406 -45.6848 906.422 
243.281 -46.9658 906.917 
242.337 -46.5049 906.471 
243.064 -44.471 905.293 
256.334 -44.8409 908.517 
256.658 -45.6324 909.04 
260.642 -44.176 909.6 
260.892 -43.418 909.351 
264.311 -41.8354 910.148 
262.451 -40.3148 908.796 
264.429 -39.1063 909.369 
265.241 -39.7601 909.955 
276.723 -42.1896 918.195 
279.689 -34.7078 921.902 
188.122 -69.1746 953.801 
187.866 -69.0866 954.616 
189.618 -70.8339 953.022 
190.051 -71.6481 953.689 
191.075 -72.6494 952.67 
190.611 -72.347 953.502 
191.63 -71.4565 948.318 
192.457 -63.9832 933.382 
191.404 -63.4218 933.711 
193.294 -65.7118 935.033 
192.653 -65.8089 935.936 
193.149 -63.8147 932.402 
195.449 -65.2874 932.227 
195.722 -66.1168 933.1 
194.216 -66.2982 934.873 
189.511 -54.0375 921.552 
188.743 -54.156 922.281 
189.955 -55.9521 923.905 
189.047 -55.4247 923.874 
194.952 -55.9599 920.377 
194.257 -55.2789 919.99 
189.181 -50.8712 917.731 
192.537 -50.4622 915.567 
195.13 -51.0331 914.898 
194.354 -51.4277 915.661 
197.302 -52.1592 914.959 
197.482 -53.0134 915.71 
195.855 -53.559 917.107 
194.982 -53.0659 917.044 
193.436 -46.5427 911.611 
195.689 -47.5311 911.549 
196.023 -48.4432 912.173 
193.967 -43.0285 908.706 
192.92 -43.1056 909.117 
193.35 -45.5827 910.865 
192.437 -44.8712 910.633 
198.793 -45.0615 908.539 
199.073 -40.7592 905.446 
198.603 -40.0066 905.067 
198.158 -42.0471 906.625 
196.667 -39.8393 905.551 
198.707 -37.3883 903.173 
200.916 -37.4342 902.591 
200.302 -39.541 904.239 
191.918 -26.1285 895.194 
191.825 -26.6484 895.747 
193.565 -25.2676 893.899 
193.387 -24.4792 893.175 
203.774 -33.2568 898.878 
205.226 -32.3433 897.972 
202.162 -34.2302 899.926 
207.547 -39.7385 902.642 
207.676 -39.0393 902.181 
210.302 -47.6012 906.992 
208.489 -46.6683 906.787 
208.403 -45.9581 906.346 
209.935 -44.9053 905.358 
222.844 -45.8083 904.606 
226.804 -46.6551 905.131 
226.522 -45.7239 904.585 
225.494 -48.1067 905.979 
224.633 -47.8225 905.79 
223.765 -46.0417 904.734 
224.474 -45.3119 904.323 
229.397 -48.9012 906.645 
228.371 -48.7375 906.48 
227.761 -46.9199 905.319 
231.52 -50.2386 907.742 
240.001 -44.2179 904.734 
238.933 -44.1469 904.566 
240.963 -48.8253 907.868 
240.474 -48.311 907.433 
237.753 -49.9674 908.273 
237.896 -49.0218 907.596 
246.216 -45.9411 906.727 
245.605 -48.1523 908.098 
243.418 -47.8668 907.552 
248.986 -47.9999 908.606 
249.537 -49.6805 909.864 
254.791 -47.5716 909.642 
253.946 -47.4954 909.385 
253.537 -49.5927 910.605 
260.105 -47.4306 911.027 
258.917 -47.502 910.714 
261.038 -49.0615 912.155 
260.498 -49.8964 912.443 
258.252 -50.343 912.118 
257.699 -49.4523 911.474 
262.704 -44.2131 910.387 
262.968 -43.3177 910.122 
190.888 -72.0388 951.803 
192.511 -69.9747 943.284 
192.71 -69.8658 942.71 
190.079 -66.3797 940.776 
190.721 -66.6482 940.151 
197.552 -67.1549 932.829 
196.542 -66.7909 933.245 
198.795 -69.0027 934.168 
192.943 -63.0346 931.483 
196.093 -64.996 931.255 
202.62 -67.9372 930.066 
196.451 -59.6549 923.988 
195.867 -60.6178 925.665 
193.579 -57.9342 923.847 
194.076 -58.6903 924.482 
196.032 -59.0693 923.539 
202.226 -57.9481 918.353 
194.322 -54.0039 918.45 
194.304 -54.6778 919.243 
195.138 -54.543 918.594 
196.367 -49.3014 912.764 
198.605 -49.8147 912.277 
199.717 -48.8547 911.058 
198.767 -47.3236 910.218 
199.339 -46.8855 909.682 
206.801 -42.0161 904.214 
206.994 -40.1746 903.021 
204.262 -42.0185 904.817 
207.032 -43.7607 905.259 
207.191 -49.3007 908.904 
204.298 -49.0413 909.59 
204.94 -48.4313 908.948 
211.915 -50.3137 908.484 
211.382 -48.5833 907.416 
212.154 -48.2154 907.029 
225.528 -51.0904 907.978 
225.062 -49.4582 906.838 
230.082 -51.7121 908.718 
233.518 -53.3912 910.487 
232.471 -53.2997 910.276 
234.033 -55.0471 912.024 
233.23 -55.5548 912.387 
236.816 -50.5936 908.629 
235.703 -50.4148 908.351 
237.487 -52.3774 910.148 
236.604 -53.0941 910.635 
234.313 -52.7042 910.006 
234.066 -51.8468 909.268 
236.819 -53.9907 911.439 
235.048 -55.2381 912.33 
238.868 -53.934 911.65 
237.846 -54.337 911.874 
240.687 -55.0797 912.859 
240.407 -55.9451 913.587 
238.603 -52.5634 910.45 
239.062 -53.1664 911.017 
245.317 -51.9135 910.829 
244.717 -51.3244 910.29 
244.039 -54.8428 913.01 
245.145 -56.1725 914.183 
248.433 -57.8819 915.675 
248.933 -57.2531 915.246 
257.14 -51.8285 912.734 
255.959 -51.6817 912.409 
257.679 -53.8715 914.038 
257.047 -54.7025 914.421 
254.532 -54.4356 913.881 
254.183 -53.4468 913.202 
257.807 -51.1484 912.478 
264.034 -52.8333 914.956 
197.809 -73.4224 941.078 
197.062 -73.4342 941.987 
197.617 -75.2494 943.864 
197.841 -72.753 940.11 
199.873 -72.6883 938.035 
199.68 -73.1315 938.783 
202.851 -70.0066 932.458 
207.426 -59.5156 917.572 
206.532 -59.3168 917.73 
205.72 -54.4668 913.389 
206.479 -57.8641 916.253 
207.065 -57.7102 915.871 
212.791 -57.1949 913.737 
212.414 -52.0261 909.609 
211.737 -55.7629 912.698 
211.039 -56.0022 913.066 
222.035 -54.8878 910.9 
221.151 -56.4648 912.289 
220.091 -56.5351 912.373 
232.12 -58.4412 915.049 
239.511 -59.5254 916.719 
246.601 -57.1381 915.032 
246.953 -60.8305 917.789 
246.367 -59.9343 917.133 
244.279 -62.4387 919.062 
243.427 -60.5179 917.593 
244.051 -59.7694 916.997 
252.032 -56.6751 915.058 
251.472 -57.3409 915.462 
253.275 -58.2035 916.15 
253.926 -57.6705 915.859 
200.317 -73.8298 939.118 
204.373 -73.1075 935.333 
206.786 -74.6309 935.883 
205.819 -74.5475 936.264 
209.393 -72.0818 931.783 
211.887 -67.9311 925.936 
211.046 -67.7092 925.899 
211.47 -69.5541 928.053 
215.132 -60.1077 916.176 
215.956 -61.4763 917.519 
211.946 -58.9169 915.552 
229.448 -60.9076 917.287 
229.076 -60.1311 916.438 
227.707 -62.2142 918.513 
226.622 -62.041 918.238 
226.079 -60.5544 916.595 
226.867 -59.9416 916.019 
236.185 -61.2627 918.173 
234.455 -62.1 918.879 
233.641 -61.8701 918.613 
243.488 -62.9809 919.516 
248.192 -60.9042 917.829 
248.866 -60.0796 917.249 
209.352 -70.1919 929.51 
211.254 -69.9417 928.591 
211.86 -70.5939 929.216 
212.603 -67.0578 924.674 
213.519 -67.5187 925.038 
212.679 -67.7451 925.505 
213.815 -64.94 921.813 
213.231 -64.3734 921.245 
215.827 -63.6833 920.009 
215.28 -64.1511 920.628 
220.581 -62.9105 918.894 
220.829 -63.5269 919.596 
231.227 -60.8682 917.417 
230.347 -61.0028 917.472 
232.862 -61.8874 918.579 
234.52 -62.7108 919.46 
234.762 -65.9522 922.4 
233.676 -65.7353 922.245 
234.35 -65.1682 921.718 
213.426 -70.1908 928.338 
217.481 -66.7327 923.517 
217.008 -67.3769 924.341 
220.188 -67.2437 923.963 
219.594 -68.6988 925.702 
218.435 -68.6971 925.791 
220.661 -65.8402 922.293 
226.972 -63.9186 920.296 
226.986 -65.5769 922.08 
226.214 -65.9491 922.465 
226.144 -66.9861 923.578 
226.83 -68.8849 925.528 
232.466 -64.2245 920.843 
231.775 -64.6305 921.222 
230.949 -67.8038 924.245 
235.942 -66.218 922.571 
220.991 -67.2359 923.925 
220.222 -69.3974 926.461 
204.017 -17.5577 886.011 
202.369 -21.1405 888.932 
202.286 -18.5227 886.826 
200.23 -15.5687 884.699 
217.047 48.4402 887.536 
232.18 34.5273 897.135 
213.997 51.0453 884.338 
218.613 46.4897 888.228 
224.177 41.3906 891.775 
223.579 41.6766 891.146 
224.608 40.6087 891.618 
226.535 38.1368 892.055 
224.833 39.8286 891.173 
229.462 36.298 894.669 
229.499 36.8833 895.318 
230.572 34.1484 894.329 
230.513 33.3882 893.588 
230.411 32.5597 892.767 
232.389 32.5768 895.623 
232.414 30.624 894.036 
231.664 30.6057 892.983 
207.856 53.2545 874.559 
209.774 54.2932 878.513 
211.252 51.2501 879.322 
212.488 49.6548 880.436 
212.758 48.673 880.248 
213.018 47.6023 879.996 
213.975 49.4202 882.846 
214.425 46.2504 881.282 
214.591 45.1172 880.806 
213.432 44.5168 878.867 
212.843 45.2284 878.433 
212.609 47.198 879.142 
221.911 39.9075 887.112 
223.471 40.2258 889.557 
222.591 39.2508 887.497 
224.283 39.5717 890.124 
224.212 37.3999 888.176 
225.597 36.9517 889.67 
226.151 36.4074 889.976 
226.36 32.85 887.639 
228.512 31.5522 889.477 
227.941 31.2496 888.55 
229.212 31.1874 890.13 
229.647 32.7471 891.854 
229.7 26.1992 887.628 
234.2 30.4216 896.422 
233.166 29.7538 894.404 
233.282 28.7777 893.814 
234.991 32.7398 899.839 
207.695 50.9908 873.485 
207.562 50.1243 873.018 
208.947 49.4622 874.771 
206.203 50.4139 871.253 
211.109 45.4323 876.197 
210.149 47.7894 875.844 
211.418 43.2643 875.744 
210.661 41.1669 874.189 
211.268 40.9396 874.784 
215.303 44.2704 881.282 
215.935 44.3158 882.198 
218.989 40.3269 883.601 
220.335 38.7962 884.257 
222.021 37.918 885.752 
222.202 35.8946 884.631 
225.345 32.8469 886.415 
224.569 31.6794 884.838 
222.796 33.7113 884.018 
225.859 32.6877 886.926 
232.063 26.2347 890.471 
229.904 25.2878 887.364 
231.608 24.1777 888.7 
237.372 27.0091 898.119 
236.226 23.1896 893.681 
235.598 23.3461 892.998 
239.695 26.8232 901.341 
238.173 27.4878 899.694 
206.301 46.1204 870.462 
206.092 45.3986 870.105 
209.343 40.4719 872.626 
211.874 40.8536 875.423 
213.579 40.2941 877.121 
214.558 38.4568 877.471 
215.374 38.6705 878.439 
215.226 40.6984 879.203 
221.727 30.0493 881.124 
221.904 30.8672 881.653 
223.449 30.9561 883.254 
223.571 25.4751 881.049 
226.895 21.9179 882.749 
224.956 22.644 881.279 
224.661 25.1057 881.899 
226.822 19.6222 881.847 
230.819 19.8743 885.66 
228.981 21.0172 884.355 
235.38 17.9326 889.409 
234.891 18.6844 889.3 
233.132 25.6606 891.437 
233.588 23.3586 890.545 
235.31 22.6898 892.206 
235.704 21.8098 892.111 
235.2 20.45 890.667 
238.385 19.6194 893.874 
237.904 16.7302 891.453 
239.323 17.3318 893.428 
237.972 26.8381 898.83 
240.29 25.8915 901.347 
239.671 24.8405 899.524 
240.884 25.619 901.965 
241.29 25.904 902.85 
243.215 20.7315 900.85 
241.884 20.6672 899.036 
243.336 24.813 904.854 
243.838 24.8312 905.657 
246.434 21.6036 906.216 
247.702 21.2714 907.819 
203.75 46.067 867.746 
202.577 44.0553 866.549 
206.257 41.7354 869.768 
204.509 45.8633 868.494 
203.901 40.75 867.62 
202.509 41.9084 866.493 
202.896 42.9404 866.813 
206.198 39.7225 869.527 
203.731 35.093 867.661 
201.927 39.1282 866.168 
201.804 41.3624 865.956 
210.219 37.9293 872.973 
208.588 37.097 871.373 
208.753 34.452 871.253 
216.084 28.7835 875.918 
222.941 23.1837 879.766 
221.105 23.7216 878.477 
220.617 24.7483 878.375 
219.863 24.9102 877.84 
227.093 16.756 881.147 
227.024 15.7993 880.813 
228.364 14.3643 881.44 
231.008 18.8083 885.368 
229.534 18.1247 883.697 
231.767 18.0788 885.782 
233.719 16.3703 886.908 
234.868 11.5713 885.935 
233.249 12.2389 884.777 
229.953 13.3063 882.386 
235.22 16.5833 888.519 
235.161 15.597 887.962 
234.505 16.505 887.753 
237.813 13.9415 889.77 
238.76 14.4376 891.016 
240.405 18.1365 895.251 
240.827 19.6737 896.903 
244.245 18.4059 900.245 
249.219 16.4514 905.279 
247.897 16.6647 903.618 
246.197 17.7863 902.297 
250.08 17.6559 907.714 
250.384 16.6818 907.209 
250.672 15.7591 906.752 
143.419 -5.46432 912.397 
137.539 0.580232 910.118 
200.973 41.7153 865.307 
198.835 37.5861 864.4 
199.234 38.4139 864.498 
201.246 38.5241 865.754 
208.065 33.6785 870.684 
208.046 32.5243 870.625 
206.27 31.7281 869.457 
206.006 30.7353 869.339 
207.229 29.0764 870.109 
213.846 26.212 873.932 
214.733 26.3425 874.519 
219.453 24.454 877.425 
219.262 23.6623 877.109 
217.371 22.9878 875.704 
216.341 25.0949 875.381 
223.251 22.3818 879.776 
220.113 18.4668 876.646 
226.265 15.3438 880.119 
224.864 12.2802 878.493 
228.302 13.4127 881.129 
229.306 9.90503 881.041 
228.552 10.4087 880.607 
227.733 8.05618 879.697 
230.144 9.38107 881.537 
230.406 7.27046 881.353 
229.55 6.77211 880.716 
232.719 8.07732 883.156 
231.363 6.78423 881.94 
234.294 5.65667 883.841 
233.555 7.73785 883.709 
231.601 5.71334 881.954 
233.628 4.82942 883.241 
240.694 7.01036 889.323 
237.622 8.94194 887.346 
236.422 10.561 886.91 
244.205 16.4994 898.648 
245.592 13.7845 898.249 
243.638 14.8068 896.676 
245.434 13.1935 897.618 
257.211 11.9833 913.757 
255.603 12.9922 911.948 
260.385 10.0491 917.774 
258.913 11.0551 915.972 
261.823 9.31201 919.989 
151.152 -14.4679 920.627 
151.84 -15.2659 922.827 
145.909 -8.03783 914.855 
146.454 -8.71624 914.45 
147.724 -10.1761 915.351 
146.342 -8.62102 911.915 
140.073 -1.94687 911.279 
143.059 -5.14191 911.437 
134.495 2.72968 905.026 
134.513 2.61695 902.214 
134.891 2.29406 903.072 
196.581 33.6382 864.182 
202.892 33.407 867.304 
199.303 32.5119 865.624 
206.832 28.0447 869.933 
204.926 27.8145 869 
205.408 23.184 869.726 
202.909 21.5611 869.169 
202.216 23.503 868.61 
208.923 26.1276 871.082 
214.111 23.2965 873.78 
213.31 23.746 873.37 
212.424 24.3754 872.922 
214.156 21.5404 873.656 
214.252 20.5879 873.637 
213.397 21.0027 873.234 
217.079 17.8378 874.838 
219.127 14.401 875.514 
224.828 10.2319 878.169 
225.909 7.8848 878.576 
224.211 6.20707 877.589 
226.856 7.49397 879.103 
227.081 5.36836 879.107 
225.713 3.82661 878.384 
229.501 5.71365 880.576 
227.772 4.87542 879.483 
232.457 0.0989084 882.281 
237.368 4.88306 885.981 
237.643 1.17343 885.657 
238.382 0.37856 886.116 
238.324 -0.763892 886.033 
241.045 -1.45825 887.883 
240.204 -2.09159 887.292 
242.806 7.87373 891.624 
241.502 6.52813 889.86 
243.639 7.31279 892.162 
242.851 4.05852 890.192 
246.855 8.52487 896.093 
246.541 7.85632 895.363 
244.728 8.39876 893.778 
247.659 8.40659 896.919 
248.355 8.41481 897.726 
248.226 11.3932 899.669 
248.609 12.9177 901.364 
248.84 10.6333 899.868 
257.713 10.9831 913.594 
257.233 9.80377 911.533 
155.751 -21.7604 926.584 
156.22 -22.5673 927.244 
157.54 -24.924 928.804 
156.72 -23.5482 926.936 
155.578 -21.5567 925.436 
155.841 -22.077 924.472 
155.136 -20.8577 922.476 
152.77 -16.9813 921.256 
152.987 -17.2879 922.081 
153.311 -17.8146 919.501 
154.699 -19.994 920.183 
154.536 -19.3811 917.713 
152.18 -14.1512 909.464 
146.406 -8.53184 910.234 
136.717 0.886201 907.046 
134.749 2.46906 901.441 
133.207 3.72552 900.374 
196.939 32.8304 864.547 
198.667 22.4141 867.972 
197.768 22.2563 867.846 
202.141 20.7193 869.131 
199.846 21.1537 868.533 
199.549 22.2261 868.205 
201.244 23.6445 868.296 
202.47 19.671 869.41 
200.798 18.1773 869.399 
199.791 18.311 869.216 
199.041 20.292 868.603 
203.345 19.5361 869.636 
208.023 24.0204 870.716 
207.083 23.5296 870.345 
206.273 23.1614 870.054 
209.139 20.9865 871.331 
207.591 19.1098 870.892 
206.76 19.2103 870.619 
210.109 20.8694 871.731 
212.582 20.3352 872.816 
215.553 15.5885 873.936 
213.845 9.98213 873.365 
213.031 9.60697 873.181 
218.625 9.79085 875.007 
217.383 7.37474 874.643 
215.922 8.79078 874.062 
221.873 5.30604 876.525 
219.501 5.21927 875.595 
219.286 7.66842 875.318 
223.798 -3.13809 878.907 
223.363 -0.907638 878.092 
229.398 -4.95288 881.602 
228.486 -4.80573 881.176 
240.09 -3.28185 887.244 
238.067 -4.0386 886.011 
240.78 -4.19259 887.747 
243.554 2.13363 890.263 
243.25 -0.625464 889.553 
242.592 -3.5131 888.942 
244.624 -4.49701 890.4 
244.439 7.53378 893.044 
248.431 3.02623 895.03 
247.927 2.98305 894.504 
246.069 1.98483 892.407 
247.655 2.06735 893.918 
250.127 3.9265 897.245 
249.052 2.73388 895.559 
250.94 3.43118 897.943 
251.353 1.28245 897.479 
250.816 0.708589 896.68 
249.315 1.69772 895.449 
248.88 1.12365 894.817 
250.028 7.08775 898.879 
251.47 4.9044 899.343 
251.406 7.50399 900.898 
252.801 6.3642 901.965 
252.848 5.49502 901.454 
251.966 10.1313 903.645 
253.208 6.73213 902.774 
254.69 7.32172 905.328 
253.868 6.37122 903.432 
257.159 8.38953 910.077 
262.091 1.60737 912.512 
263.562 1.53913 914.97 
262.662 1.04578 913.02 
262.96 -0.00429058 912.699 
264.498 -1.48097 914.143 
264.349 4.30252 919.146 
262.972 5.14653 917.333 
264.677 3.35742 918.776 
264.117 2.44895 916.796 
267.049 0.14993 920.176 
265.295 4.12729 920.92 
160.138 -29.6665 930.263 
160.383 -30.059 931.238 
159.887 -29.145 931.207 
159.596 -28.7383 928.294 
159.858 -29.1954 929.236 
161.497 -32.0027 929.403 
160.882 -30.812 927.093 
156.92 -23.9731 925.85 
158.529 -26.8477 927.834 
158.319 -25.9918 922.224 
160.037 -29.1673 924.88 
155.448 -21.3091 921.488 
157.145 -24.2194 922.876 
155.267 -20.9072 920.432 
156.235 -22.072 918.764 
156.201 -21.7294 917.63 
156.251 -21.4527 916.471 
157.803 -23.9861 917.663 
156.349 -20.9667 914.721 
154.313 -16.19 909.067 
148.457 -9.61603 906.763 
150.662 -11.2389 905.979 
150.813 -10.2515 903.768 
146.2 -6.93227 904.514 
141.482 -2.68889 902.36 
142.231 -3.1323 902.014 
133.612 3.51712 899.345 
135.805 2.32809 897.673 
136.204 2.28745 896.877 
189.012 26.953 864.826 
186.872 27.3861 864.366 
197.291 21.2319 868.069 
195.133 21.1006 867.842 
193.09 20.7937 867.787 
194.311 15.1504 869.819 
195.399 16.8842 869.246 
196.623 18.4888 868.812 
197.877 20.339 868.411 
204.126 19.7378 869.799 
206.11 18.9465 870.454 
207.806 12.1267 871.72 
206.904 10.2011 871.894 
206.174 8.29662 872.211 
205.136 8.19369 872.144 
203.985 9.88252 871.638 
208.853 7.79268 872.642 
206.791 7.44238 872.475 
211.729 5.24562 873.611 
209.856 4.09575 873.654 
208.895 4.77238 873.368 
209.626 6.97601 872.921 
206.362 6.45728 872.687 
207.71 4.54538 873.325 
216.315 6.63953 874.384 
220.638 0.835816 876.732 
219.045 2.22572 875.93 
226.408 -2.09904 879.565 
225.526 -4.82218 880.072 
227.701 -5.51402 881.094 
224.735 -5.66486 880.133 
229.427 -7.68978 882.526 
230.449 -8.70933 883.308 
228.958 -10.5961 883.595 
230.23 -11.9561 884.661 
236.23 -4.80328 885.019 
234.278 -5.2346 884.023 
233.944 -6.26628 884.088 
235.384 -7.82416 885.229 
235.028 -8.88716 885.369 
233.101 -9.25323 884.607 
235.572 -9.49367 885.826 
236.327 -9.78442 886.287 
236.83 -15.4164 888.842 
236.044 -15.7922 888.713 
231.56 -13.3173 885.785 
241.843 -4.3004 888.457 
242.46 -6.51991 889.053 
242.458 -11.1924 890.003 
240.687 -10.5399 888.809 
238.959 -9.71469 887.623 
237.201 -9.00114 886.49 
243.379 -6.84781 889.693 
244.224 -7.17791 890.294 
245.023 -9.26116 891.136 
244.654 -11.8592 891.496 
246.578 -12.4624 892.858 
248.25 1.17227 894.213 
246.61 -4.39709 891.898 
248.384 -6.52165 893.283 
246.706 -5.54508 891.963 
251.561 3.88751 898.904 
253.135 2.53235 900.13 
256.227 -0.992965 902.36 
254.856 -1.69206 900.397 
253.575 -2.47963 898.683 
252.241 -3.36147 897.054 
253.597 4.66623 901.923 
253.717 2.86903 901.037 
257.344 0.57681 904.614 
257.615 2.56281 906.206 
258.307 2.54461 907.22 
259.491 0.523324 907.649 
259.389 -0.389731 906.944 
257.927 -0.404487 904.883 
260.636 -0.0964155 908.965 
260.051 0.380914 908.392 
261.343 -0.722301 909.631 
262.254 -2.91149 909.665 
264.588 -3.5119 912.871 
265.432 -7.32659 912.014 
266.791 -8.44543 913.486 
267.773 -4.25523 917.701 
266.006 -3.02372 915.54 
267.395 -4.5132 916.844 
270.188 -7.62342 919.571 
268.843 -6.19535 918.176 
268.505 -6.35169 917.476 
266.53 2.06413 921.141 
268.661 -1.30948 922 
269.033 -2.05584 922.027 
269.378 -0.468493 924.535 
270.336 -2.82104 924.055 
269.862 -0.704337 925.413 
270.662 -1.1668 926.837 
271.572 -3.42661 926.253 
271.772 -1.81402 928.969 
272.853 -3.63709 929.329 
272.856 -4.34518 928.363 
165.271 -38.1976 939.119 
166.961 -40.9676 940.702 
163.843 -35.9711 935.179 
164.504 -37.0221 936.89 
165.068 -37.9742 936.586 
165.337 -38.367 934.331 
162.283 -33.3829 931.942 
161.727 -32.4135 932.182 
163.028 -34.6294 933.647 
161.526 -31.8331 934.703 
163.349 -34.9243 928.981 
163.551 -35.3299 929.85 
161.277 -31.2821 925.988 
162.611 -33.5583 927.29 
162.085 -32.9613 929.286 
161.191 -30.9186 924.747 
162.43 -32.2819 922.974 
163.011 -33.2034 923.289 
163.497 -33.6726 922.662 
160.837 -29.6638 921.875 
160.643 -29.9876 924.275 
159.466 -26.5613 918.485 
160.937 -27.8497 917.002 
161.448 -28.7417 917.482 
161.112 -29.2747 919.669 
162.191 -29.4426 917.005 
158.586 -24.7529 916.881 
161.086 -27.4509 915.857 
162.491 -24.2515 908.605 
156.422 -17.7521 907.947 
157.244 -18.2759 907.464 
158.337 -20.0928 908.603 
155.668 -17.2191 908.349 
157.674 -17.4223 905.566 
157.506 -17.8866 906.473 
159.264 -20.6038 907.958 
159.827 -19.4242 905.584 
152.483 -12.8525 905.94 
151.695 -10.6323 903.198 
151.972 -10.3294 902.351 
153.806 -11.1725 901.511 
154.24 -11.9242 902.077 
154.135 -10.7886 900.661 
154.949 -10.9314 900.07 
155.486 -9.58855 898.023 
145.48 -5.3941 901.911 
144.85 -4.22612 900.213 
147.546 -5.88822 900.077 
147.315 -5.29401 899.273 
144.414 -4.83025 902.415 
140.096 -0.562823 898.474 
141.568 -0.741385 896.816 
142.796 -2.20807 898.545 
136.908 2.34347 895.405 
139.249 1.65986 894.128 
138.568 2.51856 892.979 
140.98 1.90943 892.182 
139.673 3.22733 890.783 
188.419 23.1921 866.557 
187.379 24.706 865.77 
186.185 26.4842 864.77 
184.15 24.3666 865.802 
184.968 26.3267 864.757 
201.039 13.1958 870.598 
199.817 11.4686 870.997 
198.756 9.73245 871.514 
197.443 7.91492 872.175 
196.311 8.09949 872.184 
195.567 9.93777 871.573 
204.678 7.25757 872.359 
202.537 7.13892 872.316 
200.34 7.02987 872.359 
197.992 6.92586 872.496 
205.284 6.38957 872.634 
204.316 4.60105 873.142 
198.955 4.21941 873.44 
197.48 5.8943 872.914 
207.101 3.49326 873.607 
204.863 3.78519 873.424 
205.683 -1.18679 875.403 
203.423 -0.133121 874.98 
213.578 5.17088 873.958 
208.159 -0.999759 875.347 
211.03 -2.07549 875.957 
208.589 -1.65764 875.65 
209.888 -4.72503 877.191 
215.828 -1.03025 876.118 
214.561 0.930802 875.24 
213.198 -1.99038 876.116 
213.79 -2.78507 876.525 
213.281 -4.90531 877.484 
211.453 -6.55833 878.267 
212.81 -8.38552 879.436 
219.405 -1.28882 876.981 
217.274 -3.13509 877.202 
218.577 -4.94488 878.25 
218.04 -5.77972 878.548 
215.983 -5.75528 878.218 
214.496 -9.72866 880.404 
216.532 -10.6426 881.181 
224.78 -8.94698 881.6 
224.459 -10.2677 882.21 
224.14 -12.3611 883.351 
222.243 -13.2487 883.603 
235.937 -16.7454 889.18 
242.581 -12.1691 890.366 
237.482 -15.4685 889.143 
243.387 -14.4329 891.589 
251.701 -4.92694 896.266 
252.268 -4.42582 896.89 
253.653 -5.46749 898.126 
255.026 -6.29252 899.424 
256.402 -7.44802 900.716 
256.349 -8.48688 900.532 
254.89 -9.18244 899.024 
253.52 -10.3177 897.764 
251.861 -10.8855 896.39 
256.914 -6.91051 901.361 
258.481 -5.58019 903.491 
257.667 -7.22982 902.144 
258.002 -8.2673 902.333 
259.175 -5.69728 904.304 
260.001 -7.77314 904.73 
259.602 -8.68286 904.062 
259.401 -4.75061 904.903 
261.278 -5.79272 906.946 
260.748 -7.84227 905.61 
263.892 -11.9808 908.363 
262.361 -9.90177 907.02 
270.111 -10.2716 917.742 
269.71 -10.205 917.12 
269.388 -10.461 916.462 
271.133 -5.16015 923.434 
271.486 -8.49036 921.357 
272.55 -8.69898 923.278 
274.141 -7.07204 928.33 
276.705 -8.12154 933.918 
172.493 -49.2811 945.207 
172.703 -49.6482 946.299 
167.625 -41.8736 936.557 
168.697 -43.4489 937.572 
165.895 -39.1904 934.066 
167.002 -40.4805 931.671 
168.33 -42.2973 932.316 
168.077 -38.716 921.245 
168.805 -39.5353 921.301 
163.793 -33.8271 921.984 
167.949 -38.115 920.33 
163.626 -33.2357 921.056 
166.651 -34.8101 917.078 
168.387 -38.1039 919.438 
162.7 -29.4787 915.958 
164.034 -31.0354 915.889 
165.675 -31.5711 914.025 
164.954 -28.7815 911.401 
167.714 -26.8857 906.503 
169.524 -27.6436 905.953 
169.807 -28.4993 906.628 
168.361 -28.8039 908.024 
167.102 -29.3667 909.744 
165.75 -29.5254 911.361 
161.502 -22.621 907.702 
161.843 -21.5346 905.915 
160.793 -19.8618 905.02 
161.346 -19.5291 904.023 
163.455 -20.9498 903.607 
163.759 -21.6645 904.129 
158.585 -15.8168 902.431 
159.58 -17.6703 903.633 
155.826 -14.3436 903.587 
158.96 -12.3697 898.306 
161.113 -8.6723 893.377 
160.654 -10.3774 895.184 
153.317 -7.50012 897.216 
155.553 -7.72457 895.906 
155.226 -6.07694 894.355 
143.691 -2.72647 898.518 
149.687 -6.32012 898.592 
146.85 2.66848 888.325 
147.255 1.28598 889.839 
140.494 3.40111 890.003 
142.594 2.49858 890.282 
146.05 4.06059 886.936 
180.67 20.7112 867.95 
178.73 19.899 868.538 
177.935 20.3323 868.296 
178.305 22.3201 866.984 
189.924 9.09094 872.565 
188.823 9.15599 872.724 
195.458 7.41355 872.514 
195.431 6.35176 872.929 
193.459 5.76954 873.412 
196.307 5.64137 873.118 
195.639 3.49462 874.078 
197.892 0.679585 875.045 
196.412 2.7818 874.287 
198.556 3.22247 873.871 
199.555 -0.535552 875.436 
203.791 -2.97249 876.329 
202.502 -0.659816 875.265 
204.534 -3.40297 876.518 
206.666 -4.87505 877.248 
205.992 -4.3495 876.975 
203.857 -6.87685 878.529 
205.196 -8.24203 879.314 
212.499 -9.27757 879.989 
209.161 -7.49745 878.767 
212.898 -9.79341 880.347 
210.113 -13.5991 882.968 
206.66 -9.59828 880.15 
216.447 -11.6099 881.826 
213.946 -11.8941 881.844 
213.497 -10.1175 880.595 
214.154 -14.1834 883.529 
225.06 -14.4354 884.817 
224.948 -12.6721 883.692 
222.269 -14.229 884.262 
224.251 -14.9669 885.04 
221.895 -16.4284 885.775 
223.345 -20.3408 888.872 
222.243 -20.0748 888.577 
221.877 -18.2166 887.115 
229.531 -14.8353 886.019 
227.463 -15.8478 886.175 
226.149 -20.8071 889.512 
223.848 -21.0962 889.495 
227.131 -22.9768 891.253 
226.979 -21.1415 889.865 
234.489 -20.2976 890.831 
241.322 -18.92 892.533 
239.264 -19.1771 891.813 
240.564 -21.2306 893.426 
239.492 -21.3257 893.088 
248.291 -14.4997 894.513 
250.164 -15.7854 896.086 
249.548 -15.3893 895.574 
257.002 -14.0783 901.098 
256.389 -14.5531 900.596 
254.791 -13.9919 899.179 
253.368 -12.9974 897.88 
251.902 -11.9186 896.549 
263.082 -14.4288 907.035 
264.739 -13.4334 909.054 
265.198 -14.2812 909.42 
267.329 -16.3288 911.48 
267.358 -17.1208 911.34 
269.343 -20.02 913 
272.258 -13.0077 919.817 
270.375 -14.4998 916.088 
272.036 -11.0307 920.621 
274.484 -12.5653 924.218 
274.077 -13.807 922.592 
274.361 -14.7749 922.51 
275.002 -12.7645 925.114 
275.894 -14.8186 925.416 
275.676 -15.5851 924.461 
276.076 -12.0119 928.008 
275.082 -12.0266 925.846 
276.604 -13.001 928.325 
276.483 -14.9682 926.499 
277.168 -13.2278 929.39 
278.003 -15.3077 929.469 
277.921 -16.0764 928.671 
277.844 -16.8061 927.949 
276.392 -8.87882 932.015 
276.591 -10.7319 930.424 
276.808 -8.89628 933.134 
277.796 -10.5753 933.698 
277.942 -11.3311 933.178 
277.178 -11.677 930.88 
277.344 -12.6564 930.319 
279.882 -12.5869 937.024 
280.261 -13.5455 936.863 
173.33 -50.5465 946.611 
173.54 -50.9731 948.809 
173.905 -51.2619 945.952 
174.055 -51.3126 944.812 
175.422 -52.9123 944.227 
176.208 -54.7168 949.589 
172.153 -47.5826 936.361 
172.908 -46.816 929.849 
173.615 -47.5865 930.144 
172.974 -46.5982 928.9 
173.074 -44.7692 923.562 
169.442 -39.8904 920.676 
170.633 -41.4593 921.373 
171.831 -42.9124 921.978 
173.182 -44.4541 922.649 
173.467 -40.9427 916.526 
174.189 -41.7069 916.752 
174.033 -44.8984 922.062 
166.787 -31.6627 912.713 
167.449 -31.5662 911.864 
169.104 -32.7694 911.544 
170.729 -34.1039 911.509 
170.721 -34.8697 912.297 
169.161 -34.7157 913.618 
170.724 -29.1001 906.609 
170.758 -30.6086 908.059 
171.045 -32.2801 909.474 
171.478 -33.9315 910.753 
172.382 -34.4853 910.628 
166.674 -25.1504 905.459 
163.383 -18.9596 901.493 
164.089 -20.6336 902.695 
162.001 -14.6346 898.215 
161.107 -14.0186 898.296 
162.824 -12.429 895.589 
161.822 -8.5847 892.884 
162.3 -8.28683 892.355 
162.193 -7.34041 891.627 
163.954 -6.55522 890.051 
164.887 -6.97526 889.881 
153.568 -0.441257 889.362 
154.355 -0.963943 889.579 
151.513 1.19433 888.423 
153.479 0.340955 888.62 
152.827 2.78823 886.445 
151.333 1.96395 887.689 
154.275 0.683801 888.019 
153.848 2.37078 886.557 
149.367 7.70699 882.348 
146.696 4.15561 886.647 
176.341 21.0418 867.868 
172.893 19.7603 868.888 
174.892 18.9424 869.39 
173.881 17.1107 870.776 
179.66 18.2734 869.483 
179.226 19.0913 869.016 
176.994 17.4823 870.219 
178.451 15.9264 871.041 
174.988 16.2218 871.282 
188.434 8.62977 873.024 
188.302 7.8346 873.402 
186.423 7.14515 874.106 
186.33 6.29971 874.519 
189.168 7.08188 873.569 
188.867 4.93291 874.593 
187.798 4.68375 874.938 
189.873 3.3582 875.107 
189.786 4.26143 874.71 
191.587 5.03872 874.022 
191.606 0.0151186 876.355 
189.307 2.60998 875.576 
192.847 -0.996623 876.627 
202.271 -5.81458 878.002 
202.163 -6.47858 878.407 
197.574 -9.11203 880.526 
205.025 -8.96742 879.792 
203.037 -9.32077 880.137 
202.911 -7.13962 878.754 
205.646 -9.68546 880.242 
204.799 -11.3768 881.432 
203.264 -14.3156 883.596 
198.665 -10.8517 881.536 
209.895 -14.4105 883.577 
210.396 -14.9749 884.015 
209.949 -16.8026 885.427 
208.757 -16.8329 885.431 
207.63 -15.2691 884.215 
206.028 -17.2006 885.704 
210.58 -17.3134 885.844 
221.126 -25.2291 892.482 
223.684 -27.1847 894.021 
222.716 -27.5625 894.239 
220.875 -26.1411 893.15 
234.487 -22.4155 892.216 
230.08 -22.6551 891.442 
228.55 -24.6029 892.618 
236.472 -21.3819 892.117 
241.573 -21.1121 893.748 
241.097 -21.9566 894.007 
241.462 -22.7015 894.527 
247.805 -20.9457 896.418 
245.964 -21.3789 895.719 
249.024 -22.4303 897.558 
256.382 -15.6585 900.707 
254.861 -16.8421 899.667 
253.174 -17.7343 898.617 
256.69 -20.4417 901.639 
256.334 -22.6747 901.787 
255.324 -23.0993 901.227 
254.107 -21.6622 900.153 
257.7 -13.9411 901.725 
258.273 -14.771 902.285 
260.065 -14.3479 903.968 
263.076 -19.5991 906.713 
261.406 -20.9114 905.3 
262.927 -22.6964 906.577 
261.263 -22.0572 905.24 
260.711 -22.5111 904.844 
264.79 -16.3427 908.626 
265.321 -16.8969 909.118 
265.944 -17.4923 909.699 
266.093 -20.4396 909.484 
265.526 -20.8236 908.903 
268.322 -20.7054 911.728 
267.743 -21.1571 911.048 
269.145 -23.4653 912.118 
267.516 -24.391 910.417 
267.413 -25.2289 910.241 
271.286 -19.1218 915.658 
270.851 -19.4316 914.991 
275.471 -17.8646 922.673 
276.043 -18.2617 923.465 
276.607 -20.7897 923.035 
278.553 -18.8855 927.905 
279.702 -20.7888 928.924 
280.167 -14.7626 935.157 
280.013 -17.4545 932.196 
279.953 -19.0426 930.758 
282.889 -19.6733 937.256 
282.856 -20.4672 936.403 
280.779 -14.1298 937.629 
176.486 -55.3768 952.87 
177.629 -56.952 953.634 
178.198 -57.1312 949.345 
175.14 -52.0441 941.517 
175.735 -53.1044 943.313 
175.602 -52.3853 940.701 
175.668 -52.2069 939.645 
178.86 -56.3069 942.415 
175.001 -50.6084 936.074 
175.499 -51.3115 936.805 
175.058 -51.395 939.018 
174.532 -49.9437 935.366 
173.721 -48.8604 934.402 
176.351 -50.4256 931.171 
175.453 -47.5918 925.536 
174.686 -45.8993 923.033 
176.56 -47.3076 922.957 
176.775 -47.9165 923.924 
174.483 -45.4039 922.336 
169.094 -35.3048 914.38 
176.458 -38.9547 912.111 
178.275 -37.5147 909.954 
180.618 -34.6261 906.756 
179.312 -35.8709 908.213 
176.416 -30.9297 905.293 
173.176 -25.6235 901.739 
170.089 -22.4171 900.204 
172.176 -24.0881 900.702 
169.192 -23.7242 902.122 
172.52 -23.6211 900.032 
173.298 -22.7369 898.704 
173.811 -22.2886 897.974 
174.412 -21.8394 897.206 
172.449 -19.9932 896.395 
173.554 -20.2742 896.074 
167.382 -20.2526 899.775 
162.259 -15.4962 898.857 
165.872 -13.1612 894.229 
166.469 -12.8062 893.558 
170.088 -14.5481 892.818 
171.983 -15.5419 892.578 
172.158 -16.191 893.038 
166.153 -11.9888 893.083 
158.961 -2.70722 889.312 
160.165 -1.11659 887.493 
160.136 1.02517 885.777 
159.105 3.09758 884.427 
154.996 6.03561 882.934 
157.025 4.95918 883.423 
150.276 7.631 882.282 
151.035 7.99522 881.806 
152.942 7.00676 882.439 
153.159 9.33424 880.207 
170.564 17.0427 871.129 
171.257 10.8337 875.687 
180.992 6.11032 875.954 
180.344 4.50756 876.945 
179.244 4.61292 877.211 
187.45 3.70166 875.475 
185.2 3.71673 876.012 
183.154 3.85732 876.48 
181.005 3.63011 877.194 
188.13 2.73331 875.777 
187.073 1.04647 876.832 
184.121 -1.4849 878.846 
188.544 -2.53508 878.289 
187.608 -2.93118 878.709 
191.656 -7.01065 880.149 
191.66 -9.93488 881.946 
193.359 -8.97781 881.05 
190.735 -7.29544 880.492 
190.682 -9.37583 881.773 
199.663 -13.9692 883.586 
197.577 -11.0311 881.778 
197.094 -13.029 883.192 
209.521 -20.0947 888.052 
208.483 -20.3479 888.234 
222.367 -28.5693 894.919 
220.052 -28.7853 895.009 
219.398 -28.088 894.518 
218.712 -27.4978 894.091 
227.663 -25.3245 893.028 
228.486 -27.0741 894.342 
227.803 -27.9085 894.835 
232.656 -28.7076 895.929 
228.32 -31.7776 897.316 
226.853 -30.324 896.321 
225.073 -29.2233 895.489 
225.317 -28.3012 894.892 
236.112 -26.3621 895.093 
234.179 -27.5378 895.443 
233.98 -28.1836 895.805 
242.742 -25.9814 896.581 
243.622 -27.8579 897.698 
242.993 -28.7128 897.911 
240.815 -28.9684 897.516 
240.31 -29.6735 897.751 
246.326 -26.1776 897.845 
244.748 -27.9232 898.049 
247.354 -26.5611 898.364 
248.411 -26.1064 898.6 
249.842 -27.4578 899.63 
246.151 -32.2317 900.145 
254.932 -24.2685 901.242 
253.015 -24.5297 900.238 
250.93 -25.0174 899.331 
248.862 -25.0628 898.416 
255.601 -24.9886 901.783 
256.265 -24.8879 902.154 
259.247 -20.9372 903.598 
257.55 -19.926 902.191 
257.141 -23.2738 902.419 
259.159 -22.1087 903.657 
259.94 -22.819 904.298 
256.998 -24.4346 902.521 
263.007 -33.1276 907.339 
265.186 -22.9585 908.456 
265.247 -26.9935 908.378 
269.491 -29.5217 911.657 
268.829 -29.8464 911.088 
274.919 -22.8557 919.36 
274.263 -24.65 917.771 
278.829 -25.5596 924.328 
278.681 -26.4897 923.596 
281.798 -24.7238 930.496 
282.105 -26.5826 929.835 
282.227 -28.4127 928.874 
282.756 -29.2526 929.365 
281.733 -16.2012 937.823 
179.307 -59.2313 955.621 
181.046 -61.4289 956.438 
181.802 -61.8618 953.168 
180.443 -60.427 953.886 
179.4 -57.1913 943.603 
179.727 -58.5618 947.803 
180.934 -56.9181 937.998 
182.174 -58.413 938.976 
182.834 -58.7988 938.424 
179.481 -57.0471 942.776 
179.497 -52.5365 929.857 
180.236 -52.3876 928.25 
180.858 -52.4438 927.42 
181.639 -52.5682 926.586 
181.537 -51.4753 924.609 
178.413 -48.2257 922.215 
178.928 -43.4965 915.045 
178.506 -44.7861 916.812 
174.892 -40.7318 914.951 
180.321 -41.7902 912.628 
182.565 -39.3453 909.703 
183.254 -39.4137 909.516 
183.967 -40.1953 909.872 
177.384 -31.3346 905.246 
178.225 -31.6774 905.21 
179.465 -30.6322 903.828 
182.634 -33.9037 905.505 
176.979 -30.5287 904.699 
182.259 -25.3536 897.554 
174.278 -19.761 895.191 
176.434 -20.5573 894.916 
175.462 -22.1841 897.041 
176.474 -22.5532 896.946 
171.43 -19.7963 896.777 
171.804 -19.2023 895.988 
172.194 -18.6701 895.263 
173.039 -18.4882 894.627 
172.964 -16.7904 893.122 
173.893 -18.9767 894.635 
175.419 -16.8321 891.896 
172.562 -15.0347 891.837 
173.492 -15.3417 891.598 
165.705 -5.56551 888.411 
167.279 -4.65921 887.005 
164.684 -4.98283 888.487 
167.266 -3.80653 886.431 
161.898 -0.192019 886.099 
167.059 1.5387 882.985 
161.3 0.747464 885.594 
164.03 5.16368 881.443 
165.864 3.62648 881.986 
156.735 8.57722 880.346 
158.967 8.53609 879.97 
159.412 7.83038 880.478 
158.202 6.7904 881.607 
167.946 13.3587 874.39 
165.478 11.9746 875.9 
174.048 7.463 877.146 
174.936 7.48151 876.891 
178.665 3.83294 877.785 
176.245 4.30367 878.279 
175.818 5.35096 877.839 
179.137 2.91789 878.109 
175.554 3.55337 878.902 
183.464 -2.10292 879.346 
181.265 -1.66587 879.77 
183.866 -2.96079 879.678 
182.61 -7.84403 882.757 
180.362 -7.47343 883.242 
179.823 -6.52106 882.865 
181.107 -5.27644 881.743 
178.935 -6.31897 883.052 
189.643 -9.6393 882.139 
188.138 -8.17396 881.546 
185.516 -11.7611 884.428 
185.363 -9.99487 883.315 
194.754 -12.5543 883.172 
192.566 -13.0295 883.842 
192.118 -13.808 884.463 
212.237 -22.0095 889.688 
210.069 -24.908 891.98 
213.172 -24.2322 891.507 
212.965 -27.2171 893.824 
222.941 -29.5206 895.575 
221.596 -31.3458 896.701 
219.538 -29.6397 895.579 
218.968 -30.4575 896.113 
225.8 -34.1493 898.497 
224.508 -31.7775 897.066 
224.082 -29.7711 895.789 
233.549 -28.6715 896.034 
234.45 -34.4287 899.278 
235.737 -32.1568 898.272 
237.097 -32.6136 898.673 
236.496 -34.9546 899.735 
243.942 -34.4043 900.53 
244.609 -36.097 901.359 
245.434 -37.761 902.23 
244.926 -38.4196 902.428 
262.836 -34.1895 907.42 
261.616 -39.9078 908.287 
265.914 -29.2117 908.875 
264.508 -30.9257 907.995 
268.67 -30.8065 910.93 
272.957 -29.5865 914.914 
275.996 -27.3368 919.168 
278.239 -26.6284 922.804 
278.694 -28.8006 922.538 
279.639 -32.7855 922.408 
279.106 -33.221 921.525 
277.822 -32.0429 920.131 
281.99 -30.1131 927.4 
280.039 -33.1633 922.853 
186.82 -69.23 961.352 
186.593 -69.0816 962.414 
183.629 -64.1428 954.623 
186.855 -67.9035 954.855 
183.854 -64.7899 956.945 
183.218 -63.2355 952.241 
187.69 -64.4398 941.394 
187.687 -64.8511 942.388 
183 -58.5065 937.329 
183.602 -59.2238 937.784 
183.115 -57.2369 934.144 
185.589 -57.5135 930.879 
186.199 -57.4515 929.985 
182.474 -51.637 923.841 
184.292 -53.0534 924.415 
184.238 -53.5942 925.4 
182.482 -53.2005 926.72 
182.908 -48.818 918.949 
181.516 -49.334 920.844 
182.306 -49.7096 920.745 
180.143 -44.2876 915.157 
183.549 -44.3074 913.486 
183.912 -45.142 914.127 
183.317 -43.461 912.806 
184.387 -42.3047 911.396 
191.332 -44.9076 911.059 
185.582 -44.8489 913.144 
183.763 -34.6897 905.763 
183.33 -34.2155 905.528 
183.334 -25.6157 897.442 
184.592 -26.9926 898.45 
183.963 -25.0677 896.636 
185.849 -25.4874 896.43 
190.39 -26.8639 896.398 
177.3 -24.2262 898.333 
179.96 -24.2333 897.234 
181.82 -22.4629 894.648 
182.559 -23.9478 895.945 
183.543 -24.2911 895.958 
182.347 -21.9706 893.949 
184.482 -22.4795 893.737 
184.913 -23.2857 894.426 
180.533 -19.0583 891.735 
180.104 -18.2491 891.149 
179.014 -17.0209 890.478 
183.29 -13.5229 886.262 
179.786 -17.484 890.585 
171.758 -7.36285 886.654 
172.647 -7.71268 886.462 
173.198 -9.65477 887.485 
172.078 -4.07926 884.453 
167.82 1.91897 882.468 
168.297 2.53849 881.907 
170.488 2.26087 881.327 
171.122 2.9684 880.689 
167.708 3.5531 881.45 
169.023 5.03866 880.083 
170.171 4.79945 879.884 
166.768 3.70984 881.645 
160.043 10.3751 878.179 
179.289 -1.42124 880.27 
174.042 -1.54536 882.201 
174.644 3.48064 879.234 
183.016 -8.66675 883.131 
179.845 -8.24204 883.872 
178.984 -8.16801 884.126 
176.542 -7.48781 884.631 
175.814 -7.80075 885.118 
189.935 -11.8421 883.512 
188.962 -13.4106 884.783 
191.558 -14.5926 885.125 
191.992 -15.4623 885.685 
190.64 -16.8649 887.018 
189.598 -16.794 887.177 
188.911 -15.1022 886.02 
194.516 -15.2757 885.131 
193.588 -15.4845 885.429 
192.805 -15.5857 885.634 
192.867 -18.2241 887.676 
190.495 -18.8225 888.651 
192.313 -20.9523 890.119 
191.333 -20.6333 890.046 
206.996 -23.9907 891.198 
205.308 -25.6406 892.59 
204.301 -25.2848 892.329 
204.846 -23.2482 890.601 
203.901 -23.5954 890.918 
207.637 -25.5273 892.458 
208.225 -29.2616 895.397 
206.026 -28.4631 894.876 
210.268 -29.6065 895.595 
215.234 -33.8642 898.284 
214.283 -34.0904 898.456 
210.194 -30.1961 896.024 
216.673 -30.3685 896.062 
218.287 -35.967 899.411 
216.146 -35.0608 898.961 
223.817 -32.4615 897.444 
223.1 -33.1155 897.803 
221.73 -40.7885 901.921 
220.63 -40.5772 901.831 
227.158 -34.8318 898.936 
229.196 -35.8964 899.607 
229.388 -37.6572 900.497 
239.738 -42.2014 903.568 
234.257 -40.0605 901.975 
244.833 -39.0422 902.696 
240.451 -42.6269 903.882 
245.42 -39.5859 903.057 
240.68 -43.4545 904.374 
246.523 -37.8705 902.497 
246.826 -38.6001 902.884 
246.443 -39.4323 903.184 
251.481 -39.9702 904.659 
252.752 -41.3591 905.677 
254.051 -42.6431 906.693 
253.584 -43.6354 907.071 
247.508 -44.9042 906.326 
255.543 -40.6391 906.221 
255.108 -42.4494 906.919 
258.659 -44.662 909.153 
256.968 -43.5549 908.054 
270.227 -39.0851 912.668 
279.268 -34.3353 921.437 
278.14 -39.602 919.421 
187.482 -68.7359 955.097 
187.232 -69.7544 961.053 
186.271 -66.6667 952.644 
187.75 -68.545 953.205 
189.987 -70.9352 951.978 
188.196 -65.4435 942.642 
188.394 -64.8355 940.804 
189.079 -62.1736 934.563 
190.682 -62.5608 933.2 
184.414 -55.9295 929.439 
185.552 -55.4392 927.185 
186.088 -57.0427 929.39 
186.384 -54.4355 924.673 
188.349 -55.5925 924.712 
190.14 -56.6423 924.752 
191.949 -57.6913 924.775 
192.045 -58.3608 925.636 
182.566 -51.1118 922.825 
184.429 -51.4291 921.644 
185.111 -51.9817 921.932 
185.226 -53.1516 923.68 
191.113 -53.0592 919.233 
189.328 -53.3488 920.75 
187.844 -53.6319 922.217 
186.189 -53.7774 923.806 
187.59 -48.6386 916.042 
192.305 -41.6834 908.276 
192.109 -42.3544 908.832 
192.82 -41.1871 907.749 
194.911 -40.1518 906.332 
193.902 -41.4333 907.573 
191.455 -27.0133 896.226 
195.42 -28.2893 896.368 
195.781 -27.8567 895.861 
186.011 -23.5745 894.363 
188.265 -23.3236 893.402 
190.187 -23.0401 892.579 
