57.18568039 4.64038849 64.93795013
165.72773743 50.86991119 -20.73789978
-168.36904907 -12.98585892 43.44870377
58.75762558 4.77965927 -18.45664787
-50.33675003 25.47932243 -23.11509705
28.70307159 3.44086838 -24.87483978
-28.53211975 -14.27394485 34.57831192
-194.05714417 -5.52312469 22.49522018
-47.72029495 -10.02989578 6.39905119
82.09103394 -19.26620865 23.87381935
92.40351868 -22.33655930 29.27900314
145.72178650 -30.66087723 43.77924728
-8.51733017 -14.43231583 12.12539673
81.49655151 -19.71294022 11.89415550
66.92701721 -7.62773514 50.35165787
-116.84863281 14.72034836 -5.90543413
95.39057922 -18.87117386 2.02043772
-198.85983276 4.13840103 15.05401993
-79.59030151 21.89217186 -16.41586685
48.22813416 -9.00194168 31.59426117
44.51646423 40.85159302 -28.50004196
96.92335510 -14.37679672 52.42002487
125.53637695 -29.85473251 17.82722473
-73.85125732 -11.53563309 49.75027084
34.79666138 -6.69501495 -12.50599670
128.47384644 -22.76229477 5.41672850
18.02523613 50.10497665 -29.67556763
70.18069458 -0.54214096 60.31135178
70.30700684 -15.49376297 21.46174240
172.97064209 -31.65456772 17.37482071
5.71082497 45.17887497 -30.98948479
62.41978455 38.11933517 -26.04549599
-21.52653122 -13.83937454 9.45123100
-18.40033340 -11.39603043 -2.08881426
168.45773315 35.73613358 -18.66546631
103.61271667 -5.54463959 -8.28234100
-193.73580933 30.53370667 11.77877426
-44.69942093 14.76801682 -22.09603500
132.32466125 29.77608871 -19.00894547
65.48799896 15.15868759 -22.20963669
136.90744019 48.73660660 -22.20265770
0.73635292 -6.38190842 -16.43105125
145.43276978 26.74237251 -16.96909714
11.72057343 60.52119446 -26.29529953
-84.38240051 64.62171936 -2.87209177
-19.87585831 14.67949677 -27.59672165
-202.30508423 17.02334213 10.79956436
-116.51065063 -7.77710342 55.29368973
-154.23446655 -11.93018723 51.45140839
53.90623856 12.61165237 -23.84859276
-29.76651001 21.87601471 -27.31547546
179.25038147 -4.79919052 -0.50571489
-30.83033752 2.06481552 67.17254639
-137.40797424 4.45224380 3.69059706
28.26424980 3.71009064 65.38373566
153.62669373 3.58154297 -5.60494661
-5.89755058 73.60671997 -14.85859680
-78.83837891 -13.67734909 38.33971024
-105.63613892 18.78448868 -9.95301056
15.28112030 -0.24964523 63.08086014
-57.80475235 -14.65652084 33.72569656
110.36003113 -18.53018570 1.55920553
-113.92251587 49.37472534 -4.31680346
25.31608009 59.06116867 -25.52727509
-1.47591591 0.66714859 65.95220184
-89.83479309 -8.88055420 17.30562973
113.69943237 42.57059860 -22.40666580
-145.63841248 14.09160614 -0.04459429
-18.56213760 35.62128448 -29.69015503
0.77853012 -13.71854019 2.51539755
-160.95582581 18.05561447 2.10747862
-150.34748840 -8.23143387 25.27257919
-182.75212097 -7.87318039 24.02990341
92.70999146 -18.17331314 43.40993881
123.01356506 72.58612061 -8.98479080
-90.24824524 -10.88377762 50.68007278
-51.33798599 -12.84260941 18.09849930
-63.59427261 27.09907532 -20.52040863
64.12329865 60.92184448 -18.48261261
-109.26557922 -9.18190765 23.72749710
48.88977051 -7.11427689 46.83739090
-34.73894882 -10.65040970 2.36535597
19.37014198 -7.80433273 52.10461044
-35.91768265 39.30857468 -26.00431061
-174.75370789 -0.58974457 14.18859482
-9.14333725 -1.20219803 -21.14304161
-109.96022034 4.78324890 -1.95975161
21.63456917 -12.41604233 18.82947540
-52.59309769 40.53833771 -22.16954422
118.26791382 -29.71358871 31.08086014
-64.70217896 38.33110809 -19.69729233
138.44311523 16.88311386 -13.07242775
-52.14889908 7.51696396 -17.06727791
46.23258972 29.34612656 -29.18233109
-156.62799072 7.88212204 4.71254683
136.71827698 -19.06993484 60.85046005
-94.48933411 11.89471817 -10.14933395
-193.76147461 -15.54504776 47.34441376
95.28372192 -23.81593704 16.84338379
-59.16947556 65.85310364 -9.40602875
30.72380829 17.86228943 -30.76009369
-110.93478394 39.11100388 -9.52853394
51.62578964 -3.85872269 -13.11507607
-131.34388733 36.72114182 -3.47172976
-24.55723572 -14.39885330 22.41655159
-63.57761002 -13.57910538 43.12326813
-77.14346313 -7.03557587 8.29270935
111.51303101 24.10750389 -18.17484093
-4.57102776 25.12569427 -31.99335289
79.78285217 64.89046478 -13.65795708
-155.41215515 27.75322151 0.48788786
44.10667419 6.42173386 67.05164337
-38.66964722 3.42056656 -17.00534439
103.16169739 57.15349579 -18.68220711
182.42593384 -18.10564041 4.47610807
-52.83263016 -11.95761490 49.53660965
14.48145103 -14.50454330 10.66438484
-6.66402054 10.50569534 -28.63694000
-14.72795868 -12.82321548 42.61830521
159.81517029 -11.28813553 73.21365356
57.76303482 -10.86091614 -2.82900667
105.91654968 -9.93724442 60.73312759
-69.42417908 -13.90465164 31.51280975
68.00308990 -15.72414017 6.85658407
-133.42016602 -10.69285965 50.80681229
10.87621880 -10.62890244 43.58819962
-140.67657471 45.81488800 4.77250624
-133.67076111 18.42564011 -3.71311617
-139.72071838 -8.54684067 25.14202499
8.57412529 20.83181763 -32.78779602
-54.41088486 58.01071548 -16.70578194
51.49096298 51.45461273 -25.72494888
40.38754272 10.80464935 -26.25118446
-170.68766785 13.99496078 5.02477217
75.47055817 36.87771606 -24.18160629
49.89326477 62.73933411 -21.10555267
32.17698288 -4.44823837 55.59477234
-191.83357239 -15.29733658 58.30430222
140.57511902 -32.86552048 32.37675095
79.35331726 10.52768326 -17.69433975
-153.73674011 -11.71419144 37.23609161
155.79460144 42.39541245 -20.96241188
-124.27259827 50.10151291 0.72707319
62.22666168 -12.14463425 30.54896164
30.64380264 -8.94946671 29.86701584
-94.75465393 -3.05851364 3.89352369
45.86006165 -12.56754303 2.65672731
1.61337376 -11.86129379 35.11937332
36.80461502 -7.82374191 44.27281570
175.75222778 -25.48971939 8.86621094
158.42253113 -20.55409622 63.88389969
-164.39373779 33.55647278 4.17893553
163.19731140 -28.27001572 11.36256981
178.77580261 -30.91785049 56.44217682
185.91607666 -34.42553329 23.48328590
128.05931091 -30.66391373 36.22032547
132.06854248 63.75389099 -17.00827408
85.63835144 -0.64992523 -12.25718689
-46.61196518 66.34998322 -13.21696091
-4.39149094 58.32658386 -26.67761040
-24.41411209 -5.89677811 -11.10378265
128.08760071 -12.27203369 64.93524170
149.63619995 -14.16482162 68.59918213
-94.33087158 -12.56319809 33.69628525
10.49979687 -9.83312607 -10.29159546
-103.57278442 48.49571609 -8.54186630
9.61511612 -12.20138168 25.55318069
-130.15412903 -11.78094864 38.44765854
-104.32751465 -12.27323914 37.47809982
79.60777283 -14.74090958 -0.15502977
91.99209595 -11.42460251 -5.34145927
-31.23871231 -12.62065506 47.10618210
171.35700989 -21.71997452 66.07010651
154.05711365 56.75002670 -20.18078995
-85.24958801 33.41014862 -15.91287231
-189.38864136 -13.24507523 37.41182709
-31.68170929 -5.93846512 59.19310379
-101.72123718 -7.20978546 56.49387741
141.52003479 -0.44500351 -5.70651102
69.16049194 -12.42852402 39.21954727
97.85144043 30.80107117 -21.19915009
138.56427002 -29.47612381 14.64335632
91.75149536 42.34245300 -22.90724564
140.33691406 -7.50335312 73.00823975
-126.38845825 1.82821274 4.29243803
119.56208801 58.80033493 -19.25749969
152.75672913 -33.57378006 25.22075653
168.33256531 -14.54238510 1.78050947
-44.82624817 53.48434448 -21.24657822
-63.91597366 3.79989243 -11.84984970
11.29365730 35.44317245 -32.15936279
-17.22080612 61.14696884 -23.73192596
-187.59819031 17.78159714 7.62807417
171.11610413 20.29759979 -11.90968323
41.79200745 71.49964905 -14.84399605
105.88397217 -25.74894333 34.28381348
11.55365276 72.21318054 -16.52433586
144.23237610 37.41684723 -20.98781967
18.81075096 -10.08092880 36.53504944
138.70274353 -10.33199692 -2.63294363
-113.54296875 -4.39086533 10.08285904
163.07524109 -34.65894699 30.96300507
102.09428406 70.53113556 -8.67330170
-83.69818115 -1.71463394 -1.34511232
163.62966919 -3.91635513 -2.20861673
93.82786560 64.55323792 -14.05733490
-156.92814636 42.58904266 7.43895292
19.87023163 -11.92123032 -4.96243143
-68.26899719 -10.49340820 15.82825470
32.81084061 -12.69461441 -0.35021067
151.02296448 -13.82443619 -0.17330313
170.93074036 -33.46300888 45.45483017
-149.97354126 -4.03581619 15.33849716
92.30535889 9.57588196 -15.53436470
-34.27971649 65.53398895 -17.33273315
-6.52346992 -10.59692383 -7.12458086
77.12042236 22.38196754 -22.04305077
-18.06407928 -8.13342667 56.66576767
122.32536316 -18.11919785 57.58506393
-181.75610352 27.69207001 6.88194609
38.39554977 -10.97863770 17.88528824
90.00775146 53.82291412 -19.94108391
124.70788574 22.58991623 -16.63546371
83.41664124 -17.65218735 35.59700394
69.68972778 -7.03673935 -8.58398056
100.60354614 -0.25768661 67.94998932
127.65756226 11.66804123 -11.80653763
-6.50951958 39.61473846 -30.90390205
154.98709106 19.07752609 -12.60020638
-41.27457047 -4.92322540 -7.04572344
-37.10331726 -14.70727921 26.44244003
159.38874817 -27.89912033 54.05003738
-3.40713310 -13.72874832 23.76518822
158.04614258 -32.13610458 43.51125717
-126.76655579 -9.55060577 27.06365204
-83.82983398 -11.87847900 26.79584885
-137.65689087 -3.78171158 13.03968430
145.69654846 -25.06004715 54.81057358
-91.21089172 54.80472565 -8.77530861
-185.71958923 6.90305710 10.55611801
-162.29205322 -4.28427124 17.29669571
-26.12068558 2.78899002 -20.26845360
-181.70364380 42.60128403 17.20206451
-69.37104797 -3.60221863 -1.26529360
111.66969299 -23.06779861 45.44261551
-169.18853760 42.89798737 12.68894958
22.42706680 -6.98688889 -15.42786789
3.23539352 66.19921112 -22.09897804
-44.88192368 -14.75922775 35.88457489
-103.82283020 60.59296417 1.32123518
111.96702576 64.70674133 -14.35558128
79.42724609 -11.70393753 48.00014877
140.82069397 -21.30715561 3.94924212
122.63676453 34.91436005 -21.18261147
151.26472473 -4.33398438 80.34214783
173.21217346 9.68782425 -6.18188143
124.83699036 -3.37567902 -6.68312216
-78.49121094 46.06632996 -15.56492996
42.57763672 0.44035339 -19.13472939
128.29858398 -25.76116562 48.35159302
-66.61480713 56.23773956 -14.60640907
-141.72596741 33.10956573 -1.63291216
122.31187439 -14.41343307 -1.64418268
18.96090317 8.18322372 -29.43659592
162.72105408 26.20440483 -15.51122665
83.40475464 3.74708939 66.63626099
94.99305725 19.48393250 -18.48724174
-65.84764099 15.21333313 -17.93454361
-77.77191162 11.08544540 -13.62284851
-121.82119751 25.91432953 -7.31863070
65.81707764 48.00579071 -24.11159134
-116.94511414 -12.06938934 40.93112564
32.22542953 48.94521332 -28.66297340
-52.24264908 -4.53020859 -4.31669283
33.20874786 33.72645950 -30.65196991
-179.57173157 -14.17454910 51.91085815
92.32426453 -5.09057236 60.79796219
56.50258636 -4.05333328 54.56628036
-193.71586609 40.38127136 20.38744736
125.07211304 46.76139832 -22.63818741
38.05424118 62.69393539 -22.33356285
-142.60540771 -12.02786636 40.32390213
-18.16186142 70.62976837 -16.09217644
108.15788269 -25.54318619 13.06366158
-4.58373642 -9.87081528 51.75933075
114.46664429 -4.85121155 68.36617279
12.08718872 -0.26308060 -24.52536774
174.82752991 -35.49091721 30.06705475
-164.59834290 -10.77249146 32.83608246
55.85047531 -13.17693710 16.07519531
-94.05207825 44.69083023 -12.66923332
-19.93844223 47.37186050 -28.05139542
-60.08806229 -8.23669434 5.84920454
23.12052536 38.06349945 -31.25070953
115.78921509 4.30610657 -10.49159813
147.72772217 70.08287048 -12.17843628
-18.82560730 0.55283737 65.34246063
29.44335175 71.44901276 -15.79813957
150.70069885 -26.42882919 9.21846771
20.83942413 25.73321915 -32.32323456
-177.06044006 -11.97923660 35.85540009
108.78987122 12.38858414 -14.14914322
-32.79636383 49.65360641 -25.15058708
-97.18356323 29.00458145 -13.26790619
86.52178955 29.35811996 -21.84958458
77.91168213 52.83924866 -21.17953300
-79.37681580 57.92531586 -10.58527756
