202.08999634 -27.45907021 -56.90569305
186.59576416 -12.84652233 -57.33103561
197.01367188 -15.70151806 -59.03751373
185.46133423 -1.61990499 -58.81567383
196.94482422 -1.10449696 -61.27990341
212.03994751 -1.46688497 -63.57224274
186.68681335 7.54389000 -57.25992203
197.58340454 10.78050995 -58.31195450
212.39900208 12.07557011 -60.46427536
188.02139282 -39.59370041 -42.33558273
198.93217468 -43.64582062 -45.42131424
185.33233643 -29.59851265 -46.84276199
196.16877747 -32.21625137 -52.91826248
137.63586426 -10.26617146 -43.06007385
152.77410889 -12.08456612 -45.70527267
167.42091370 -15.12423897 -47.82421494
180.84814453 -17.19804955 -51.62597275
193.51353455 -22.64776802 -55.46052551
107.96095276 3.79885006 -42.44233322
122.46597290 -0.73802501 -44.45315552
136.82151794 -1.07174397 -46.28033447
152.00961304 -1.31405902 -48.36316299
166.92941284 -1.36222696 -50.67188263
178.77566528 -1.12953806 -53.12545395
97.96511841 10.92154026 -41.85081482
107.65374756 12.44507027 -43.10323334
121.84375000 13.91129971 -44.16830444
136.72012329 13.89177036 -45.49158478
151.98733521 13.73781967 -47.60451508
166.79244995 13.45287037 -50.18694305
181.38745117 14.01887989 -50.96681213
194.84356689 17.53495979 -53.39283371
210.08465576 19.10541916 -54.98726273
125.71109772 22.24971962 -41.66884232
139.59434509 23.25451088 -42.22692490
152.10168457 23.48926926 -43.57529449
166.79241943 24.65476036 -43.97977448
181.37663269 24.76622963 -44.90048218
197.95736694 24.29920006 -47.42379379
211.60798645 25.41017914 -48.58989334
186.74740601 -43.82656097 -34.02156448
194.97079468 -49.27796555 -36.63374329
171.77629089 -24.36187935 -29.66887283
180.52873230 -31.10559273 -35.34276199
94.83078766 -10.29229927 -29.05167389
107.38311768 -11.32919598 -32.87483215
121.79579926 -12.67155266 -35.11662292
136.68649292 -14.53623199 -34.83809280
151.67372131 -16.69413567 -34.11121368
165.42056274 -21.52346802 -35.14499283
176.10284424 -22.91481972 -40.66885376
79.34335327 1.08017004 -30.56515312
91.88101959 -1.03434896 -35.17581558
106.19666290 -3.01846910 -38.67818451
116.55970764 -5.34892797 -40.59548569
44.32577133 20.62446976 -26.66885376
64.68892670 16.30919075 -28.26119423
76.69119263 13.59486008 -35.23899460
90.99385071 13.97963047 -39.66046524
103.14991760 18.50713921 -40.28863525
-37.14022827 32.19812012 -26.66885376
-12.81459045 34.86190033 -26.66885376
2.65509510 35.26192093 -26.66867447
19.67056084 33.36058044 -26.86841393
32.32669830 30.01471901 -28.30119324
46.53725815 29.17003059 -28.51696396
61.72301102 28.70463943 -29.49119377
76.59863281 28.39030075 -33.53978348
91.77786255 28.49381065 -34.97083282
106.74656677 28.47945023 -35.08664322
121.63687897 29.06137085 -35.37006378
136.16511536 29.70453072 -35.99889374
151.96368408 30.95194054 -35.08712387
166.94003296 32.00970840 -35.31355286
181.27378845 31.97451973 -35.21837234
196.48301697 30.71139908 -34.18494415
212.23612976 32.92618179 -34.44798279
227.24279785 33.18124008 -34.33133316
-11.57882214 42.42411804 -26.73233414
4.10311508 40.14928055 -27.37118340
17.25694084 40.69596863 -26.91127396
32.57260895 40.36454010 -27.17853355
45.75547028 39.97169113 -27.86583328
63.20475006 37.97237015 -27.31151390
76.20572662 37.72127914 -27.48705292
92.12445831 37.82072067 -27.35312462
103.66419983 37.44350052 -27.11327362
124.59349060 37.81481934 -27.57520294
135.33030701 38.05075073 -27.69048309
150.75976563 37.23165131 -27.02595329
166.41444397 37.13280869 -27.72147369
176.32583618 36.80195999 -28.86892319
186.90431213 -45.09186935 -20.00881386
191.16899109 -52.41408920 -19.55128288
171.06237793 -24.97585869 -21.24781418
179.67181396 -29.40019226 -20.08337402
81.47075653 -9.31701946 -15.77414417
91.30632782 -11.36642742 -19.91875458
106.43302917 -14.29479599 -19.64838409
121.87480927 -16.59111786 -19.58192444
136.41044617 -17.69315529 -19.79125404
151.34780884 -19.16355705 -19.96881294
163.07249451 -21.65364456 -18.66896439
-65.82253265 4.52623987 -11.66887379
-57.19521332 3.61091995 -12.60949421
-42.49274826 2.29815006 -13.47286415
-27.80100060 1.85162997 -13.31634331
-12.10245609 0.82550901 -12.79772377
1.77682102 0.71535200 -13.64870358
17.04110909 1.39910996 -13.69352341
31.26246071 2.40949988 -14.10032368
47.84328842 1.56746995 -14.99177361
62.06602097 0.27169299 -17.61014366
74.42346191 -3.52835703 -21.21312332
86.21823883 -7.76097202 -24.41878319
-110.69602966 20.88813019 -11.66887379
-101.39652252 19.51922035 -11.97786331
-86.54624939 16.22196007 -13.54868412
-72.78141022 14.53180027 -15.96642399
-58.05792618 13.79876041 -15.72359371
-43.22100830 13.73338985 -16.44660378
-28.28212166 13.62946987 -17.83723450
-13.12698746 13.47404957 -18.03172302
2.09052706 13.61497021 -18.57931328
16.96813965 13.75959015 -19.39560318
31.68078041 13.92084026 -21.02334404
46.93819046 13.96706963 -21.01696396
59.98038101 11.57960987 -23.21232414
-112.77218628 25.56266975 -12.16877365
-102.25289154 28.20013046 -14.16058254
-87.87462616 28.66633987 -17.00998306
-73.03969574 28.65241051 -19.11444473
-58.22148132 28.74897957 -20.95545387
-43.36870193 28.54841042 -22.86596298
-28.00862694 28.51003075 -22.48801422
-13.22054291 28.22439957 -23.12512398
1.55565000 28.28268051 -22.88825417
15.89186954 27.09609985 -23.98521423
29.50057030 23.49035072 -24.77611351
49.53213120 22.29112053 -25.53243446
198.06996155 35.39167023 -23.97329330
206.18601990 35.82706070 -23.50218391
-99.57106018 39.59276962 -13.44479370
-87.50517273 43.24248886 -15.47755337
-72.89603424 43.68944168 -17.23135376
-58.27481842 43.88801956 -18.92389297
-43.09088135 43.47777176 -22.24482346
-28.02074814 43.66637039 -23.67682457
-13.80690289 43.71422958 -24.74702454
0.15395001 45.45920181 -24.82612419
16.30586052 45.49008942 -25.41853333
31.30320930 46.17713928 -24.64766312
47.88518906 47.24946976 -23.06534386
61.46577835 45.06060028 -22.77977371
77.04525757 45.10911942 -19.83917427
91.52915955 44.79909897 -20.07569313
107.13829041 44.43939972 -19.35971451
121.49131012 44.55617905 -19.95308304
136.97061157 44.90135956 -20.24967384
151.59823608 42.83629990 -18.72278404
166.26878357 42.01644135 -19.16898346
182.67762756 40.16371918 -18.55607414
195.87564087 39.46289063 -16.98030472
212.04992676 38.79850006 -17.90411377
227.37977600 39.37874985 -19.56422424
-83.37508392 52.10572815 -12.05350399
-71.87571716 54.93231964 -13.67892361
-57.60103989 55.87368011 -14.13030338
-43.08194733 56.70299149 -15.77771378
-28.06417847 57.84693146 -19.12112427
-13.08781815 58.56111908 -20.40947342
1.85114002 58.38999939 -20.98132324
16.77779961 58.53453064 -20.44142342
31.70693016 58.38740921 -18.53258324
46.09555817 57.66357040 -16.46347427
61.43989944 55.07381821 -15.25522423
76.00221252 54.11013031 -13.47948360
90.96627808 52.38180923 -12.69317341
105.72403717 51.93289185 -12.03252411
116.70973969 51.74198151 -11.66887379
133.38716125 51.79983902 -12.30527401
-11.69090939 66.78639984 -16.03246307
0.56739801 66.85723114 -15.66894341
13.79522991 66.92217255 -15.33551407
27.37508011 66.31404877 -13.66884422
188.18893433 -44.90175247 -9.66883373
192.54815674 -51.15678024 -4.66878414
172.57202148 -24.66596794 -8.66885376
181.99526978 -28.59032822 -3.86883402
-54.30023956 -9.40874195 0.91015601
-41.99090576 -10.39217377 -1.42301404
-27.81983566 -12.13694382 -3.44575405
-12.83469200 -12.84032345 -3.63756394
1.43320000 -13.81388283 -4.63641405
16.71126938 -13.33697224 -3.28327394
31.75424004 -12.31976604 -3.16889405
46.19123840 -11.05970192 -2.16282392
60.50902176 -9.82930470 -0.76879400
76.85852051 -9.27876663 -2.59180403
91.79637146 -11.63030434 -4.28427410
106.85395050 -14.27280235 -4.40562391
120.08751678 -16.21998978 -5.16886377
135.43565369 -17.56340218 -2.35636401
151.98471069 -19.19461060 -5.56356382
166.59843445 -21.30850410 -2.60223389
-192.40458679 5.35161018 3.33123589
-179.92813110 5.86389017 3.33111596
-162.39356995 5.11829996 3.21577597
-146.86553955 3.56668997 1.67237604
-133.51376343 3.79900002 0.24168600
-118.28942108 2.90072989 -0.25261399
-102.71123505 2.34017992 -1.50592399
-87.57207489 0.74436498 -4.94046402
-72.73469543 -0.82974899 -5.70518398
-58.64781189 -3.61350894 -6.35261393
-43.66062546 -4.90831614 -8.06541348
-28.31421280 -5.44948912 -9.05008411
-15.09014702 -5.34225988 -9.76754379
1.62759304 -6.59806299 -9.19688416
16.39269066 -5.95440006 -8.57634354
32.30110168 -5.18714619 -9.28516388
45.19628906 -5.16819191 -8.76559353
61.73020172 -7.10908318 -7.57796383
72.19287872 -8.18105125 -8.33560371
-193.75468445 13.85985947 2.40241599
-177.25035095 14.01832962 1.98565602
-162.93882751 13.71477985 0.51801598
-148.27349854 13.86460972 -1.78809404
-132.97489929 13.87189007 -4.50505400
-117.81301880 13.73497009 -6.02216387
-103.12942505 12.32678986 -7.92695379
-89.82118225 9.79629040 -9.54790401
-74.55596161 7.18724012 -9.64249420
-193.25299072 27.50922966 1.62552595
-177.96882629 28.33296967 1.87896597
-163.18470764 28.56072044 -0.23521399
-148.11039734 28.70914078 -3.26658392
-132.90533447 28.71997070 -6.16951418
-118.49768829 28.75754929 -8.85082340
-109.04634094 33.36922073 -10.19520378
-177.54992676 36.30830002 3.33111596
-161.70365906 38.30899048 3.02319598
-147.71879578 40.54227829 0.10560600
-132.51835632 42.06298065 -2.77127409
-117.59158325 42.63560867 -4.61537409
-104.05912018 45.27690125 -7.85959387
-92.41833496 50.14105988 -10.12332344
142.85597229 50.86492920 -10.26881409
153.87562561 49.55387878 -8.72589397
165.97392273 49.03244019 -6.43355417
181.68711853 47.73001099 -4.60137415
196.89122009 46.22325897 -3.99805403
211.04127502 44.46083069 -3.02816391
227.39819336 45.26144028 -4.27247381
-110.85440063 51.43796921 -2.66886401
-100.42011261 52.40623093 -5.10890388
-88.06497955 54.15594864 -8.69966412
-74.61589050 58.31153107 -10.30905342
-60.63981247 60.34268951 -10.66888332
51.51929092 62.52685928 -10.66888332
62.07941055 60.20745087 -9.47846413
77.61225891 58.63618088 -8.86536407
91.60163879 57.16783905 -8.22271347
106.51663971 55.73149872 -7.50226402
122.22360229 55.03783035 -6.90789413
137.08828735 55.35065079 -6.43415403
151.21340942 54.25661087 -3.83813405
166.33555603 52.92441940 0.21122600
180.31379700 52.16051102 3.04536605
190.59729004 51.53049088 3.33111596
196.42948914 -48.21260834 11.33118629
185.78300476 -27.50187492 8.33116627
-200.25282288 -8.78371334 18.33115578
-66.23364258 -8.97378540 13.33110619
-57.98221970 -10.13057709 9.83117580
-43.23187637 -12.22494984 10.33096600
-28.07951927 -15.37099648 10.16907597
-13.01717091 -17.45503426 9.78564644
2.24649811 -18.98196411 10.15459633
16.44389915 -18.20220757 10.42412663
31.07979965 -16.29399490 10.54553604
47.04830933 -13.77613926 10.05606747
62.32543182 -10.97892189 10.53117657
76.81030273 -9.12544060 10.95013618
90.38433075 -10.33998966 11.11685658
106.81320953 -13.33025074 10.58112621
122.71914673 -15.67001724 9.22005653
140.42086792 -17.01431084 13.08118629
151.34780884 -18.33112526 9.22005653
168.76577759 -19.76595879 14.58113575
175.74354553 -21.62774658 15.33113575
-193.64892578 -0.97523600 7.96757603
-178.37997437 0.73417300 8.49698639
-163.31745911 0.65609097 8.41872597
-148.77339172 -0.99588197 9.72728634
-132.97146606 -1.08997500 9.38861656
-117.97632599 -1.93372405 9.31678581
-102.92487335 -2.54913402 9.05542660
-88.23150635 -4.76865482 10.68114662
-74.05541992 -7.21824884 9.78820610
-188.89845276 13.86252022 4.42813587
-182.54011536 12.44437981 4.51319599
-192.16001892 34.84012985 4.84650612
-180.63735962 34.55871964 4.33109617
-193.69116211 37.50883865 6.73650599
-177.84182739 38.25265884 5.44391584
-164.14337158 40.76642990 4.66464615
200.76435852 50.67124176 5.53117609
212.67559814 48.90966034 6.58111620
225.51339722 48.60488129 7.07041597
173.78387451 53.60837173 4.33115578
183.37246704 52.78593826 4.53107595
195.07086182 51.87630081 5.33120584
189.08641052 -27.09117508 19.33114624
-199.69332886 -9.30641747 25.99780655
-66.38192749 -8.74517059 28.33114624
-57.62575150 -10.46623325 26.20618629
-43.65102768 -12.57680416 26.18120575
-28.89854622 -15.24364185 26.06796646
-13.86098671 -17.67375374 25.33124542
1.89097095 -19.24161530 26.21351624
16.12589073 -18.79748726 25.99792671
31.81851959 -17.12230682 25.63546562
46.56689072 -14.80729866 25.87656593
61.14456940 -11.93063736 25.33112717
73.10090637 -9.78446770 25.48484612
92.66989899 -9.79092026 23.47402573
107.78877258 -12.26696396 26.08113670
118.57881165 -13.82926941 26.33111572
146.70932007 -16.16177750 32.83117676
168.07046509 -19.25025940 20.33113670
175.52319336 -21.27775574 19.33114624
-192.46615601 -6.98865986 25.58826637
-178.19238281 -4.68055916 24.92641640
-162.74861145 -3.55911303 25.45951653
-149.14660645 -3.35639691 26.98628616
-133.29495239 -3.31744599 28.46442604
-118.13970184 -3.09030700 26.67717552
-102.60984039 -3.33342695 25.73852539
-88.07065582 -5.11843681 26.04536629
-73.55457306 -7.42552423 25.64697647
81.50627136 -8.52283764 27.33116531
87.92507935 -8.42146587 28.33114624
192.92750549 -25.87722397 34.33113480
-199.79124451 -9.34881687 39.58116531
-57.83870697 -9.98574543 42.11686707
-42.97117233 -12.41340542 40.58103561
-27.88511848 -14.90612316 41.11694717
-13.67897701 -17.27126503 40.33111572
2.52014303 -18.87834740 42.09588623
16.59840012 -18.78187180 40.33099747
31.72207069 -17.28973579 40.73111725
47.04837036 -14.90744209 41.46437454
61.26303864 -12.20649529 41.22577667
74.13912964 -9.96631432 40.42206573
96.03086090 -8.97806072 40.83113480
103.82965088 -10.14992619 42.61683655
119.94362640 -12.74139404 41.93114471
132.62884521 -13.89196491 46.66440582
152.11624146 -15.90704918 42.13117599
-192.33731079 -7.10383081 40.90254593
-178.58221436 -5.29754877 40.59796524
-162.82139587 -3.90283799 42.23113632
-147.39717102 -3.46434903 40.88114548
-133.36582947 -3.19324398 43.33107758
-118.54914856 -2.95167398 41.98108673
-103.58451843 -3.07965994 41.23114777
-88.07788849 -4.85124397 41.66446686
-73.66210175 -6.97186613 41.33115768
-65.03089142 -8.62896538 39.33112717
80.72660828 -8.31711292 39.16447449
88.19547272 -8.17448711 37.70618439
-200.09220886 -9.05293179 55.33109665
-55.52420807 -9.94366360 56.58112717
-43.42116165 -11.88988209 56.22588730
-28.57827568 -14.12716484 56.46442795
-12.92140198 -16.77326012 56.39367676
1.84643102 -18.40071487 58.83108521
16.51321030 -18.53866959 55.10036469
32.40504837 -17.29699135 55.75214767
47.12697983 -14.98012447 56.70611572
62.18289185 -12.32865524 56.64699554
75.47956848 -9.97286320 57.44229507
108.13475800 -9.77949810 57.23117447
120.41943359 -11.73396397 57.64369583
133.40060425 -13.36150646 56.45619583
151.41189575 -15.11109638 55.24020767
169.74696350 -16.56167984 59.33110809
177.85366821 -17.29551697 57.93117523
-192.71586609 -7.14170218 51.94644547
-177.88377380 -5.32646513 51.42204666
-168.67993164 -4.21699095 53.33112717
-147.81219482 -3.50663805 50.48500443
-134.94950867 -3.27581906 52.70616531
-117.50998688 -2.80335593 51.88666534
-102.02156830 -3.09872603 51.99782562
-86.31171417 -4.83324385 53.45617676
-72.65131378 -6.85666513 54.25970459
-63.39475250 -8.41596031 57.73113632
82.36016083 -8.02124310 53.53115463
91.56896210 -7.56571484 56.37280655
102.75079346 -8.42014694 61.83110809
-43.82334900 -11.74035740 64.33116913
-29.65667152 -13.73326015 65.93118286
-12.22131538 -16.59036446 68.23115540
3.54662395 -18.35373116 70.33114624
17.06896973 -18.41570473 69.27244568
31.29784966 -17.52860069 68.03117371
45.69705963 -15.39108944 67.93116760
61.07949829 -12.91859913 67.03107452
76.76683044 -9.97575378 66.83115387
85.34980011 -9.00241661 66.33113861
109.72415924 -9.56017494 65.83117676
122.78241730 -11.55261707 67.70615387
138.69439697 -13.35106754 69.51307678
152.39587402 -14.56117630 68.54538727
166.25506592 -15.55433941 71.46452332
181.83961487 -17.00983238 73.33110809
100.74127960 -8.17675877 64.33116913
