ply
format ascii 1.0
comment VCGLIB generated
element vertex 419
property float x
property float y
property float z
element face 0
property list uchar int vertex_indices
end_header
202.09 -27.45907 -56.90569 
186.5958 -12.84652 -57.33104 
197.0137 -15.70152 -59.03751 
185.4613 -1.619905 -58.81567 
196.9448 -1.104497 -61.2799 
212.0399 -1.466885 -63.57224 
186.6868 7.54389 -57.25992 
197.5834 10.78051 -58.31195 
212.399 12.07557 -60.46428 
188.0214 -39.5937 -42.33558 
198.9322 -43.64582 -45.42131 
185.3323 -29.59851 -46.84276 
196.1688 -32.21625 -52.91826 
137.6359 -10.26617 -43.06007 
152.7741 -12.08457 -45.70527 
167.4209 -15.12424 -47.82421 
180.8481 -17.19805 -51.62597 
193.5135 -22.64777 -55.46053 
107.961 3.79885 -42.44233 
122.466 -0.7380251 -44.45316 
136.8215 -1.071744 -46.28033 
152.0096 -1.314059 -48.36316 
166.9294 -1.362227 -50.67188 
178.7757 -1.129538 -53.12545 
97.96512 10.92154 -41.85081 
107.6537 12.44507 -43.10323 
121.8438 13.9113 -44.1683 
136.7201 13.89177 -45.49158 
151.9873 13.73782 -47.60452 
166.7924 13.45287 -50.18694 
181.3875 14.01888 -50.96681 
194.8436 17.53496 -53.39283 
210.0847 19.10542 -54.98726 
125.7111 22.24972 -41.66884 
139.5943 23.25451 -42.22692 
152.1017 23.48927 -43.57529 
166.7924 24.65476 -43.97977 
181.3766 24.76623 -44.90048 
197.9574 24.2992 -47.42379 
211.608 25.41018 -48.58989 
186.7474 -43.82656 -34.02156 
194.9708 -49.27797 -36.63374 
171.7763 -24.36188 -29.66887 
180.5287 -31.10559 -35.34276 
94.83079 -10.2923 -29.05167 
107.3831 -11.3292 -32.87483 
121.7958 -12.67155 -35.11662 
136.6865 -14.53623 -34.83809 
151.6737 -16.69414 -34.11121 
165.4206 -21.52347 -35.14499 
176.1028 -22.91482 -40.66885 
79.34335 1.08017 -30.56515 
91.88102 -1.034349 -35.17582 
106.1967 -3.018469 -38.67818 
116.5597 -5.348928 -40.59549 
44.32577 20.62447 -26.66885 
64.68893 16.30919 -28.26119 
76.69119 13.59486 -35.23899 
90.99385 13.97963 -39.66047 
103.1499 18.50714 -40.28864 
-37.14023 32.19812 -26.66885 
-12.81459 34.8619 -26.66885 
2.655095 35.26192 -26.66867 
19.67056 33.36058 -26.86841 
32.3267 30.01472 -28.30119 
46.53726 29.17003 -28.51696 
61.72301 28.70464 -29.49119 
76.59863 28.3903 -33.53978 
91.77786 28.49381 -34.97083 
106.7466 28.47945 -35.08664 
121.6369 29.06137 -35.37006 
136.1651 29.70453 -35.99889 
151.9637 30.95194 -35.08712 
166.94 32.00971 -35.31355 
181.2738 31.97452 -35.21837 
196.483 30.7114 -34.18494 
212.2361 32.92618 -34.44798 
227.2428 33.18124 -34.33133 
-11.57882 42.42412 -26.73233 
4.103115 40.14928 -27.37118 
17.25694 40.69597 -26.91127 
32.57261 40.36454 -27.17853 
45.75547 39.97169 -27.86583 
63.20475 37.97237 -27.31151 
76.20573 37.72128 -27.48705 
92.12446 37.82072 -27.35312 
103.6642 37.4435 -27.11327 
124.5935 37.81482 -27.5752 
135.3303 38.05075 -27.69048 
150.7598 37.23165 -27.02595 
166.4144 37.13281 -27.72147 
176.3258 36.80196 -28.86892 
186.9043 -45.09187 -20.00881 
191.169 -52.41409 -19.55128 
171.0624 -24.97586 -21.24781 
179.6718 -29.40019 -20.08337 
81.47076 -9.317019 -15.77414 
91.30633 -11.36643 -19.91875 
106.433 -14.2948 -19.64838 
121.8748 -16.59112 -19.58192 
136.4104 -17.69316 -19.79125 
151.3478 -19.16356 -19.96881 
163.0725 -21.65364 -18.66896 
-65.82253 4.52624 -11.66887 
-57.19521 3.61092 -12.60949 
-42.49275 2.29815 -13.47286 
-27.801 1.85163 -13.31634 
-12.10246 0.825509 -12.79772 
1.776821 0.7153519 -13.6487 
17.04111 1.39911 -13.69352 
31.26246 2.4095 -14.10032 
47.84329 1.56747 -14.99177 
62.06602 0.2716929 -17.61014 
74.42346 -3.528357 -21.21312 
86.21824 -7.760972 -24.41878 
-110.696 20.88813 -11.66887 
-101.3965 19.51922 -11.97786 
-86.54625 16.22196 -13.54868 
-72.78141 14.5318 -15.96642 
-58.05793 13.79876 -15.72359 
-43.22101 13.73339 -16.4466 
-28.28212 13.62947 -17.83723 
-13.12699 13.47405 -18.03172 
2.090527 13.61497 -18.57931 
16.96814 13.75959 -19.3956 
31.68078 13.92084 -21.02334 
46.93819 13.96707 -21.01696 
59.98038 11.57961 -23.21232 
-112.7722 25.56267 -12.16877 
-102.2529 28.20013 -14.16058 
-87.87463 28.66634 -17.00998 
-73.0397 28.65241 -19.11444 
-58.22148 28.74898 -20.95545 
-43.3687 28.54841 -22.86596 
-28.00863 28.51003 -22.48801 
-13.22054 28.2244 -23.12512 
1.55565 28.28268 -22.88825 
15.89187 27.0961 -23.98521 
29.50057 23.49035 -24.77611 
49.53213 22.29112 -25.53243 
198.07 35.39167 -23.97329 
206.186 35.82706 -23.50218 
-99.57106 39.59277 -13.44479 
-87.50517 43.24249 -15.47755 
-72.89603 43.68944 -17.23135 
-58.27482 43.88802 -18.92389 
-43.09088 43.47777 -22.24482 
-28.02075 43.66637 -23.67682 
-13.8069 43.71423 -24.74702 
0.1539499 45.4592 -24.82612 
16.30586 45.49009 -25.41853 
31.30321 46.17714 -24.64766 
47.88519 47.24947 -23.06534 
61.46578 45.0606 -22.77977 
77.04526 45.10912 -19.83917 
91.52916 44.7991 -20.07569 
107.1383 44.4394 -19.35971 
121.4913 44.55618 -19.95308 
136.9706 44.90136 -20.24967 
151.5982 42.8363 -18.72278 
166.2688 42.01644 -19.16898 
182.6776 40.16372 -18.55607 
195.8756 39.46289 -16.9803 
212.0499 38.7985 -17.90411 
227.3798 39.37875 -19.56422 
-83.37508 52.10573 -12.0535 
-71.87572 54.93232 -13.67892 
-57.60104 55.87368 -14.1303 
-43.08195 56.70299 -15.77771 
-28.06418 57.84693 -19.12112 
-13.08782 58.56112 -20.40947 
1.85114 58.39 -20.98132 
16.7778 58.53453 -20.44142 
31.70693 58.38741 -18.53258 
46.09556 57.66357 -16.46347 
61.4399 55.07382 -15.25522 
76.00221 54.11013 -13.47948 
90.96628 52.38181 -12.69317 
105.724 51.93289 -12.03252 
116.7097 51.74198 -11.66887 
133.3872 51.79984 -12.30527 
-11.69091 66.7864 -16.03246 
0.567398 66.85723 -15.66894 
13.79523 66.92217 -15.33551 
27.37508 66.31405 -13.66884 
188.1889 -44.90175 -9.668834 
192.5482 -51.15678 -4.668784 
172.572 -24.66597 -8.668854 
181.9953 -28.59033 -3.868834 
-54.30024 -9.408742 0.9101562 
-41.99091 -10.39217 -1.423014 
-27.81984 -12.13694 -3.445754 
-12.83469 -12.84032 -3.637564 
1.4332 -13.81388 -4.636414 
16.71127 -13.33697 -3.283274 
31.75424 -12.31977 -3.168894 
46.19124 -11.0597 -2.162824 
60.50902 -9.829305 -0.7687938 
76.85852 -9.278767 -2.591804 
91.79637 -11.6303 -4.284274 
106.854 -14.2728 -4.405624 
120.0875 -16.21999 -5.168864 
135.4357 -17.5634 -2.356364 
151.9847 -19.19461 -5.563564 
166.5984 -21.3085 -2.602234 
-192.4046 5.35161 3.331236 
-179.9281 5.86389 3.331116 
-162.3936 5.1183 3.215776 
-146.8655 3.56669 1.672376 
-133.5138 3.799 0.2416862 
-118.2894 2.90073 -0.2526138 
-102.7112 2.34018 -1.505924 
-87.57207 0.7443649 -4.940464 
-72.7347 -0.829749 -5.705184 
-58.64781 -3.613509 -6.352614 
-43.66063 -4.908316 -8.065413 
-28.31421 -5.449489 -9.050084 
-15.09015 -5.34226 -9.767544 
1.627593 -6.598063 -9.196884 
16.39269 -5.9544 -8.576344 
32.3011 -5.187146 -9.285164 
45.19629 -5.168192 -8.765594 
61.7302 -7.109083 -7.577964 
72.19288 -8.181051 -8.335604 
-193.7547 13.85986 2.402416 
-177.2504 14.01833 1.985656 
-162.9388 13.71478 0.5180162 
-148.2735 13.86461 -1.788094 
-132.9749 13.87189 -4.505054 
-117.813 13.73497 -6.022164 
-103.1294 12.32679 -7.926954 
-89.82118 9.79629 -9.547904 
-74.55596 7.18724 -9.642494 
-193.253 27.50923 1.625526 
-177.9688 28.33297 1.878966 
-163.1847 28.56072 -0.2352138 
-148.1104 28.70914 -3.266584 
-132.9053 28.71997 -6.169514 
-118.4977 28.75755 -8.850823 
-109.0463 33.36922 -10.1952 
-177.5499 36.3083 3.331116 
-161.7037 38.30899 3.023196 
-147.7188 40.54228 0.1056062 
-132.5184 42.06298 -2.771274 
-117.5916 42.63561 -4.615374 
-104.0591 45.2769 -7.859594 
-92.41833 50.14106 -10.12332 
142.856 50.86493 -10.26881 
153.8756 49.55388 -8.725894 
165.9739 49.03244 -6.433554 
181.6871 47.73001 -4.601374 
196.8912 46.22326 -3.998054 
211.0413 44.46083 -3.028164 
227.3982 45.26144 -4.272474 
-110.8544 51.43797 -2.668864 
-100.4201 52.40623 -5.108904 
-88.06498 54.15595 -8.699664 
-74.61589 58.31153 -10.30905 
-60.63981 60.34269 -10.66888 
51.51929 62.52686 -10.66888 
62.07941 60.20745 -9.478464 
77.61226 58.63618 -8.865364 
91.60164 57.16784 -8.222713 
106.5166 55.7315 -7.502264 
122.2236 55.03783 -6.907894 
137.0883 55.35065 -6.434154 
151.2134 54.25661 -3.838134 
166.3356 52.92442 0.2112262 
180.3138 52.16051 3.045366 
190.5973 51.53049 3.331116 
196.4295 -48.21261 11.33119 
185.783 -27.50187 8.331166 
-200.2528 -8.783713 18.33116 
-66.23364 -8.973785 13.33111 
-57.98222 -10.13058 9.831176 
-43.23188 -12.22495 10.33097 
-28.07952 -15.371 10.16908 
-13.01717 -17.45503 9.785646 
2.246498 -18.98196 10.1546 
16.4439 -18.20221 10.42413 
31.0798 -16.29399 10.54554 
47.04831 -13.77614 10.05607 
62.32543 -10.97892 10.53118 
76.8103 -9.125441 10.95014 
90.38433 -10.33999 11.11686 
106.8132 -13.33025 10.58113 
122.7191 -15.67002 9.220057 
140.4209 -17.01431 13.08119 
151.3478 -18.33113 9.220057 
168.7658 -19.76596 14.58114 
175.7435 -21.62775 15.33114 
-193.6489 -0.9752361 7.967576 
-178.38 0.7341729 8.496986 
-163.3175 0.6560909 8.418726 
-148.7734 -0.995882 9.727286 
-132.9715 -1.089975 9.388617 
-117.9763 -1.933724 9.316786 
-102.9249 -2.549134 9.055427 
-88.23151 -4.768655 10.68115 
-74.05542 -7.218249 9.788206 
-188.8985 13.86252 4.428136 
-182.5401 12.44438 4.513196 
-192.16 34.84013 4.846506 
-180.6374 34.55872 4.331096 
-193.6912 37.50884 6.736506 
-177.8418 38.25266 5.443916 
-164.1434 40.76643 4.664646 
200.7644 50.67124 5.531176 
212.6756 48.90966 6.581116 
225.5134 48.60488 7.070416 
173.7839 53.60837 4.331156 
183.3725 52.78594 4.531076 
195.0709 51.8763 5.331206 
189.0864 -27.09118 19.33115 
-199.6933 -9.306417 25.99781 
-66.38193 -8.745171 28.33115 
-57.62575 -10.46623 26.20619 
-43.65103 -12.5768 26.18121 
-28.89855 -15.24364 26.06797 
-13.86099 -17.67375 25.33125 
1.890971 -19.24162 26.21352 
16.12589 -18.79749 25.99793 
31.81852 -17.12231 25.63547 
46.56689 -14.8073 25.87657 
61.14457 -11.93064 25.33113 
73.10091 -9.784468 25.48485 
92.6699 -9.79092 23.47403 
107.7888 -12.26696 26.08114 
118.5788 -13.82927 26.33112 
146.7093 -16.16178 32.83118 
168.0705 -19.25026 20.33114 
175.5232 -21.27776 19.33115 
-192.4662 -6.98866 25.58827 
-178.1924 -4.680559 24.92642 
-162.7486 -3.559113 25.45952 
-149.1466 -3.356397 26.98629 
-133.295 -3.317446 28.46443 
-118.1397 -3.090307 26.67718 
-102.6098 -3.333427 25.73853 
-88.07066 -5.118437 26.04537 
-73.55457 -7.425524 25.64698 
81.50627 -8.522838 27.33117 
87.92508 -8.421466 28.33115 
192.9275 -25.87722 34.33113 
-199.7912 -9.348817 39.58117 
-57.83871 -9.985745 42.11687 
-42.97117 -12.41341 40.58104 
-27.88512 -14.90612 41.11695 
-13.67898 -17.27127 40.33112 
2.520143 -18.87835 42.09589 
16.5984 -18.78187 40.331 
31.72207 -17.28974 40.73112 
47.04837 -14.90744 41.46437 
61.26304 -12.2065 41.22578 
74.13913 -9.966314 40.42207 
96.03086 -8.978061 40.83113 
103.8297 -10.14993 42.61684 
119.9436 -12.74139 41.93114 
132.6288 -13.89196 46.66441 
152.1162 -15.90705 42.13118 
-192.3373 -7.103831 40.90255 
-178.5822 -5.297549 40.59797 
-162.8214 -3.902838 42.23114 
-147.3972 -3.464349 40.88115 
-133.3658 -3.193244 43.33108 
-118.5491 -2.951674 41.98109 
-103.5845 -3.07966 41.23115 
-88.07789 -4.851244 41.66447 
-73.6621 -6.971866 41.33116 
-65.03089 -8.628965 39.33113 
80.72661 -8.317113 39.16447 
88.19547 -8.174487 37.70618 
-200.0922 -9.052932 55.3311 
-55.52421 -9.943664 56.58113 
-43.42116 -11.88988 56.22589 
-28.57828 -14.12716 56.46443 
-12.9214 -16.77326 56.39368 
1.846431 -18.40071 58.83109 
16.51321 -18.53867 55.10036 
32.40505 -17.29699 55.75215 
47.12698 -14.98012 56.70612 
62.18289 -12.32866 56.647 
75.47957 -9.972863 57.4423 
108.1348 -9.779498 57.23117 
120.4194 -11.73396 57.6437 
133.4006 -13.36151 56.4562 
151.4119 -15.1111 55.24021 
169.747 -16.56168 59.33111 
177.8537 -17.29552 57.93118 
-192.7159 -7.141702 51.94645 
-177.8838 -5.326465 51.42205 
-168.6799 -4.216991 53.33113 
-147.8122 -3.506638 50.485 
-134.9495 -3.275819 52.70617 
-117.51 -2.803356 51.88667 
-102.0216 -3.098726 51.99783 
-86.31171 -4.833244 53.45618 
-72.65131 -6.856665 54.2597 
-63.39475 -8.41596 57.73114 
82.36016 -8.021243 53.53115 
91.56896 -7.565715 56.37281 
102.7508 -8.420147 61.83111 
-43.82335 -11.74036 64.33117 
-29.65667 -13.73326 65.93118 
-12.22132 -16.59036 68.23116 
3.546624 -18.35373 70.33115 
17.06897 -18.4157 69.27245 
31.29785 -17.5286 68.03117 
45.69706 -15.39109 67.93117 
61.0795 -12.9186 67.03107 
76.76683 -9.975754 66.83115 
85.3498 -9.002417 66.33114 
109.7242 -9.560175 65.83118 
122.7824 -11.55262 67.70615 
138.6944 -13.35107 69.51308 
152.3959 -14.56118 68.54539 
166.2551 -15.55434 71.46452 
181.8396 -17.00983 73.33111 
100.7413 -8.176759 64.33117 
