258.546859939439	-55.1149440590841	-87.4188037813889
248.048009939439	-40.3250940590841	-87.1982637813888
254.573079939439	-46.1751820590841	-89.4819637813888
247.014039939439	-30.8784020590841	-87.2812337813889
253.745669939439	-31.3382520590841	-90.7799737813888
247.598859939439	-19.8361870590841	-87.3355937813889
254.504949939439	-16.9532820590841	-89.9425237813888
258.269129939439	-6.60628805908406	-87.5999437813888
233.913779939439	-54.9114200590841	-72.1688937813888
243.556169939439	-56.4656820590841	-74.5939137813888
256.338979939439	-60.7248280590841	-78.0679737813889
265.773319939439	-66.1676300590841	-73.9320037813889
231.044259939439	-44.4066640590841	-75.1952037813889
241.900169939439	-46.3918970590841	-80.9276837813888
250.475939939439	-49.5874360590841	-84.5095037813889
227.894539939439	-31.2236920590841	-75.4073337813889
239.640979939439	-31.3656330590841	-82.6218237813888
228.161899939439	-17.1055790590841	-75.2034337813888
241.346659939439	-15.7664640590841	-81.0123837813889
252.209129939439	-10.5022940590841	-84.5544437813889
231.782939939439	-6.57809505908406	-73.1162537813889
243.435229939439	-2.92911405908407	-76.1768337813888
255.204879939439	-0.49138105908407	-81.4221037813888
248.463269939439	6.40020994091593	-71.6688737813889
258.151829939439	9.39755994091593	-74.6851637813888
265.654029939439	12.8365499409159	-73.8355637813888
245.435359939439	-69.6111900590841	-58.1850537813888
257.088569939439	-71.6972970590841	-63.4535037813888
267.974819939439	-72.7225770590841	-63.3500337813888
219.019739939439	-54.2773720590841	-58.0021837813889
228.670329939439	-57.9766970590841	-61.0441037813888
241.367899939439	-63.3532440590841	-65.6249037813889
255.181669939439	-67.1243000590841	-69.4021137813888
264.996799939439	-68.3193820590841	-70.6688837813888
215.342909939439	-44.1127980590841	-61.1660037813888
225.121909939439	-47.4192390590841	-66.0551337813888
202.089989939439	-27.4590700590841	-56.9056937813889
211.992589939439	-31.4010610590841	-62.8574637813888
220.710279939439	-30.6655470590841	-69.4406737813889
186.595769939439	-12.8465220590841	-57.3310337813888
197.013669939439	-15.7015180590841	-59.0375137813889
211.851089939439	-16.5849400590841	-63.7318037813889
222.035409939439	-13.2830520590841	-68.5160837813889
185.461339939439	-1.61990505908406	-58.8156737813889
196.944829939439	-1.10449705908407	-61.2799037813888
212.039949939439	-1.46688505908407	-63.5722437813888
225.965019939439	-1.09979505908407	-67.1869637813889
239.483529939439	3.15142994091594	-67.9363737813888
186.686809939439	7.54388994091594	-57.2599237813888
197.583409939439	10.7805099409159	-58.3119537813889
212.398999939439	12.0755699409159	-60.4642737813889
226.661829939439	12.3399999409159	-61.4431637813888
242.259259939439	13.1691799409159	-60.9735337813888
255.711459939439	15.9404399409159	-64.0199937813888
266.763299939439	18.7239299409159	-66.9924137813889
243.894399939439	21.6714899409159	-56.6688837813888
262.245449939439	21.9326199409159	-57.5577137813889
269.212359939439	22.9764799409159	-59.7656437813888
243.156489939439	-71.0439680590841	-48.2688637813888
254.099039939439	-73.7787280590841	-49.8781337813888
272.289479939439	-76.6718130590841	-52.8909637813888
280.395209939439	-78.9873100590841	-43.6688737813888
214.753149939439	-56.2919940590841	-46.7321937813888
226.077349939439	-63.1491580590841	-49.7424137813889
236.571519939439	-67.7253310590841	-52.3996437813888
188.021389939439	-39.5937000590841	-42.3355837813888
198.932169939439	-43.6458220590841	-45.4213137813888
209.851169939439	-47.7121060590841	-50.7311337813888
185.332329939439	-29.5985120590841	-46.8427637813889
196.168779939439	-32.2162510590841	-52.9182637813889
204.856099939439	-38.0382910590841	-55.6688437813888
137.635859939439	-10.2661700590841	-43.0600737813889
152.774109939439	-12.0845660590841	-45.7052737813888
167.420919939439	-15.1242390590841	-47.8242137813888
180.848149939439	-17.1980490590841	-51.6259737813888
193.513539939439	-22.6477680590841	-55.4605237813889
107.960949939439	3.79884994091594	-42.4423337813888
122.465969939439	-0.73802505908406	-44.4531537813888
136.821519939439	-1.07174405908407	-46.2803337813889
152.009619939439	-1.31405905908406	-48.3631637813888
166.929419939439	-1.36222705908406	-50.6718837813889
178.775669939439	-1.12953805908407	-53.1254537813889
97.9651199394388	10.9215399409159	-41.8508137813889
107.653749939439	12.4450699409159	-43.1032337813888
121.843749939439	13.9112999409159	-44.1683037813888
136.720119939439	13.8917699409159	-45.4915837813888
151.987329939439	13.7378199409159	-47.6045137813889
166.792449939439	13.4528699409159	-50.1869437813889
181.387449939439	14.0188799409159	-50.9668137813888
194.843559939439	17.5349599409159	-53.3928337813888
210.084649939439	19.1054199409159	-54.9872637813889
226.785839939439	20.0914599409159	-55.0298237813889
237.295059939439	20.6377999409159	-55.2688337813888
254.067869939439	20.9335099409159	-55.6689037813888
125.711099939439	22.2497199409159	-41.6688437813888
139.594339939439	23.2545099409159	-42.2269237813888
152.101679939439	23.4892699409159	-43.5752937813888
166.792419939439	24.6547599409159	-43.9797737813888
181.376629939439	24.7662299409159	-44.9004837813888
197.957369939439	24.2991999409159	-47.4237937813888
211.607989939439	25.4101799409159	-48.5898937813888
226.931029939439	25.5910799409159	-48.4250937813888
241.854339939439	25.7988599409159	-49.5100737813888
256.840079939439	26.2065699409159	-49.8243637813889
270.993379939439	28.0550299409159	-48.6098637813889
281.310199939439	31.1205899409159	-41.6688437813888
233.359629939439	-68.8226520590841	-36.3355437813888
241.244879939439	-71.0406430590841	-34.4124537813888
254.952639939439	-74.6231420590841	-35.3530737813889
200.143479939439	-54.6062810590841	-29.7800437813889
211.049229939439	-58.5789420590841	-34.8116237813888
225.007709939439	-65.0878960590841	-34.8929237813889
186.747399939439	-43.8265620590841	-34.0215637813889
194.970789939439	-49.2779650590841	-36.6337437813888
204.732769939439	-53.5968360590841	-40.1688937813889
171.776289939439	-24.3618790590841	-29.6688737813888
180.528729939439	-31.1055930590841	-35.3427637813888
94.8307899394388	-10.2922990590841	-29.0516737813888
107.383119939439	-11.3291960590841	-32.8748337813888
121.795799939439	-12.6715530590841	-35.1166237813888
136.686499939439	-14.5362320590841	-34.8380937813888
151.673719939439	-16.6941360590841	-34.1112137813888
165.420559939439	-21.5234680590841	-35.1449937813888
176.102849939439	-22.9148200590841	-40.6688537813889
79.3433499394389	1.08016994091593	-30.5651537813888
91.8810199394389	-1.03434905908406	-35.1758137813888
106.196659939439	-3.01846905908407	-38.6781837813889
116.559709939439	-5.34892805908406	-40.5954837813889
44.3257699394388	20.6244699409159	-26.6688537813888
64.6889299394389	16.3091899409159	-28.2611937813888
76.6911899394388	13.5948599409159	-35.2389937813888
90.9938499394388	13.9796299409159	-39.6604637813889
103.149919939439	18.5071399409159	-40.2886337813888
-37.1402290605612	32.1981199409159	-26.6688537813888
-12.8145900605612	34.8618999409159	-26.6688537813888
2.65509493943884	35.2619199409159	-26.6686737813888
19.6705599394389	33.3605799409159	-26.8684137813888
32.3266999394388	30.0147199409159	-28.3011937813888
46.5372599394388	29.1700299409159	-28.5169637813888
61.7230099394388	28.7046399409159	-29.4911937813889
76.5986299394389	28.3902999409159	-33.5397837813888
91.7778599394388	28.4938099409159	-34.9708337813889
106.746569939439	28.4794499409159	-35.0866437813888
121.636879939439	29.0613699409159	-35.3700637813889
136.165109939439	29.7045299409159	-35.9988937813889
151.963679939439	30.9519399409159	-35.0871237813888
166.940029939439	32.0097099409159	-35.3135537813888
181.273789939439	31.9745199409159	-35.2183737813888
196.483009939439	30.7113999409159	-34.1849437813888
212.236129939439	32.9261799409159	-34.4479837813888
227.242799939439	33.1812399409159	-34.3313337813889
241.844559939439	32.9747599409159	-36.4996937813888
256.539579939439	33.6851299409159	-36.1782437813888
271.566569939439	33.7850699409159	-34.7376537813888
284.197419939439	34.5951699409159	-31.6688537813888
-11.5788220605612	42.4241199409159	-26.7323337813888
4.10311493943885	40.1492799409159	-27.3711837813888
17.2569399394388	40.6959699409159	-26.9112737813888
32.5726099394389	40.364539940916	-27.1785337813888
45.7554699394388	39.971689940916	-27.8658337813889
63.2047499394389	37.9723699409159	-27.3115137813889
76.2057299394389	37.7212799409159	-27.4870537813888
92.1244599394388	37.8207199409159	-27.3531237813889
103.664199939439	37.4434999409159	-27.1132737813888
124.593489939439	37.8148199409159	-27.5752037813888
135.330299939439	38.0507499409159	-27.6904837813888
150.759769939439	37.231649940916	-27.0259537813888
166.414439939439	37.1328099409159	-27.7214737813888
176.325829939439	36.8019599409159	-28.8689237813888
241.884409939439	37.153819940916	-28.6689537813888
256.562229939439	36.8343499409159	-28.6688937813888
268.899619939439	37.0772899409159	-27.1688837813888
241.985589939439	-70.8509870590841	-20.7355137813888
253.909939939439	-73.9884280590841	-17.0534937813889
265.722539939439	-76.1927310590841	-23.3355837813888
199.137979939439	-55.9516920590841	-19.7971537813888
211.372279939439	-60.2342150590841	-19.9687637813888
226.082319939439	-65.3098560590841	-19.2626837813888
186.904309939439	-45.0918710590841	-20.0088137813889
191.168989939439	-52.4140900590841	-19.5512837813888
171.062379939439	-24.9758590590841	-21.2478137813888
179.671819939439	-29.4001920590841	-20.0833737813888
81.4707599394389	-9.31701805908407	-15.7741437813889
91.3063299394388	-11.3664270590841	-19.9187537813889
106.433029939439	-14.2947960590841	-19.6483837813888
121.874809939439	-16.5911170590841	-19.5819237813888
136.410439939439	-17.6931550590841	-19.7912537813888
151.347809939439	-19.1635570590841	-19.9688137813888
163.072499939439	-21.6536450590841	-18.6689637813888
-65.8225360605612	4.52623994091593	-11.6688737813888
-57.1952140605612	3.61091994091593	-12.6094937813889
-42.4927490605612	2.29814994091593	-13.4728637813888
-27.8010010605612	1.85162994091594	-13.3163437813888
-12.1024560605612	0.825508940915931	-12.7977237813889
1.77682093943884	0.715351940915932	-13.6487037813888
17.0411099394388	1.39910994091594	-13.6935237813889
31.2624599394388	2.40949994091594	-14.1003237813888
47.8432899394389	1.56746994091593	-14.9917737813888
62.0660199394388	0.271692940915932	-17.6101437813888
74.4234599394388	-3.52835705908407	-21.2131237813888
86.2182399394389	-7.76097205908406	-24.4187837813888
-110.696028060561	20.8881299409159	-11.6688737813888
-101.396520160561	19.5192199409159	-11.9778637813889
-86.5462482605612	16.2219599409159	-13.5486837813888
-72.7814100605612	14.5317999409159	-15.9664237813888
-58.0579280605612	13.7987599409159	-15.7235937813889
-43.2210090605612	13.7333899409159	-16.4466037813888
-28.2821220605612	13.6294699409159	-17.8372337813888
-13.1269860605611	13.4740499409159	-18.0317237813888
2.09052693943884	13.6149699409159	-18.5793137813889
16.9681399394389	13.7595899409159	-19.3956037813888
31.6807799394388	13.9208399409159	-21.0233437813888
46.9381899394388	13.9670699409159	-21.0169637813888
59.9803799394388	11.5796099409159	-23.2123237813888
-112.772190060561	25.5626699409159	-12.1687737813888
-102.252888060561	28.2001299409159	-14.1605837813888
-87.8746267605612	28.6663399409159	-17.0099837813889
-73.0396970605612	28.6524099409159	-19.1144437813888
-58.2214830605612	28.7489799409159	-20.9554537813889
-43.3687020605612	28.5484099409159	-22.8659637813888
-28.0086260605611	28.5100299409159	-22.4880137813889
-13.2205430605612	28.2243999409159	-23.1251237813889
1.55564993943885	28.2826799409159	-22.8882537813888
15.8918699394389	27.0960999409159	-23.9852137813888
29.5005699394389	23.4903499409159	-24.7761137813889
49.5321299394389	22.2911199409159	-25.5324337813888
198.069959939439	35.3916699409159	-23.9732937813888
206.186019939439	35.8270599409159	-23.5021837813888
-99.5710634605612	39.5927699409159	-13.4447937813889
-87.5051752605612	43.2424899409159	-15.4775537813888
-72.8960350605612	43.6894399409159	-17.2313537813888
-58.2748180605612	43.8880199409159	-18.9238937813888
-43.0908810605612	43.4777699409159	-22.2448237813888
-28.0207480605612	43.6663699409159	-23.6768237813888
-13.8069030605611	43.7142299409159	-24.7470237813888
0.153949939438847	45.459199940916	-24.8261237813888
16.3058599394389	45.4900899409159	-25.4185337813888
31.3032099394388	46.1771399409159	-24.6476637813888
47.8851899394388	47.2494699409159	-23.0653437813888
61.4657799394388	45.0605999409159	-22.7797737813888
77.0452599394389	45.1091199409159	-19.8391737813889
91.5291599394388	44.7990999409159	-20.0756937813888
107.138289939439	44.4393999409159	-19.3597137813888
121.491309939439	44.5561799409159	-19.9530837813888
136.970609939439	44.9013599409159	-20.2496737813889
151.598229939439	42.8362999409159	-18.7227837813888
166.268789939439	42.0164399409159	-19.1689837813889
182.677629939439	40.1637199409159	-18.5560737813888
195.875639939439	39.4628899409159	-16.9803037813888
212.049929939439	38.7984999409159	-17.9041137813888
227.379769939439	39.3787499409159	-19.5642237813888
241.607519939439	40.2721399409159	-19.0303437813888
256.256609939439	40.5885199409159	-19.7671737813888
271.176579939439	39.8847499409159	-19.1111637813889
286.980869939439	38.7529799409159	-18.8226837813889
294.577629939439	41.2932399409159	-12.6688637813889
-83.3750850605612	52.1057299409159	-12.0535037813888
-71.8757150605612	54.9323199409159	-13.6789237813888
-57.6010400605612	55.8736799409159	-14.1303037813888
-43.0819480605612	56.7029899409159	-15.7777137813888
-28.0641780605612	57.8469299409159	-19.1211237813889
-13.0878180605612	58.5611199409159	-20.4094737813888
1.85113993943885	58.3899999409159	-20.9813237813888
16.7777999394388	58.5345299409159	-20.4414237813888
31.7069299394388	58.3874099409159	-18.5325837813888
46.0955599394389	57.6635699409159	-16.4634737813888
61.4398999394388	55.0738199409159	-15.2552237813889
76.0022099394388	54.1101299409159	-13.4794837813889
90.9662799394389	52.3818099409159	-12.6931737813888
105.724039939439	51.9328899409159	-12.0325237813889
116.709739939439	51.7419799409159	-11.6688737813888
133.387159939439	51.7998399409159	-12.3052737813888
-11.6909090605612	66.7863999409159	-16.0324637813888
0.567397939438843	66.8572299409159	-15.6689437813888
13.7952299394389	66.922169940916	-15.3355137813889
27.3750799394388	66.3140499409159	-13.6688437813889
245.235889939439	-70.9695280590841	-9.16893378138883
254.414139939439	-72.9577080590841	-2.66881378138883
200.005379939439	-55.8518060590841	-4.91882378138886
212.282419939439	-60.1493680590841	-6.16885378138887
226.393759939439	-64.3350780590841	-4.43805378138884
188.188939939439	-44.9017510590841	-9.66883378138883
192.548149939439	-51.1567820590841	-4.6687837813888
172.572019939439	-24.6659670590841	-8.66885378138882
181.995269939439	-28.5903290590841	-3.8688337813888
-224.696580060561	-10.2718320590841	3.15462621861118
-54.3002390605612	-9.40874205908407	0.910156218611125
-41.9909040605612	-10.3921740590841	-1.42301378138887
-27.8198360605612	-12.1369440590841	-3.44575378138878
-12.8346920605611	-12.8403230590841	-3.6375637813888
1.43319993943884	-13.8138830590841	-4.63641378138879
16.7112699394388	-13.3369720590841	-3.28327378138882
31.7542399394388	-12.3197660590841	-3.16889378138885
46.1912399394388	-11.0597020590841	-2.16282378138888
60.5090199394388	-9.82930505908407	-0.768793781388832
76.8585199394389	-9.27876705908406	-2.59180378138879
91.7963699394388	-11.6303040590841	-4.28427378138885
106.853949939439	-14.2728020590841	-4.40562378138887
120.087519939439	-16.2199890590841	-5.16886378138881
135.435649939439	-17.5634030590841	-2.35636378138882
151.984709939439	-19.1946110590841	-5.56356378138878
166.598439939439	-21.3085040590841	-2.6022337813888
-230.821860060561	-7.45553505908407	3.33111621861115
-221.916170060561	-1.96465105908407	1.93570621861117
-209.596430060561	1.31774994091594	2.33088621861122
-192.404584060561	5.35160994091594	3.3312362186112
-179.928133060561	5.86388994091594	3.33111621861115
-162.393564060561	5.11829994091594	3.21577621861113
-146.865541060561	3.56668994091594	1.67237621861116
-133.513765060561	3.79899994091594	0.241686218611203
-118.289424060561	2.90072994091593	-0.252613781388855
-102.711235160561	2.34017994091594	-1.50592378138881
-87.5720730605612	0.74436494091594	-4.94046378138879
-72.7346960605612	-0.829749059084062	-5.70518378138885
-58.6478130605612	-3.61350905908407	-6.35261378138885
-43.6606270605612	-4.90831605908407	-8.06541378138881
-28.3142120605612	-5.44948905908406	-9.05008378138883
-15.0901470605612	-5.34226005908407	-9.76754378138878
1.62759293943884	-6.59806305908407	-9.19688378138883
16.3926899394388	-5.95440005908407	-8.57634378138883
32.3010999394388	-5.18714605908406	-9.28516378138888
45.1962899394389	-5.16819205908406	-8.76559378138886
61.7301999394389	-7.10908305908406	-7.57796378138886
72.1928799394388	-8.18105105908407	-8.33560378138887
-232.633950060561	18.8676599409159	2.12072621861115
-222.643730060561	14.9575399409159	2.15618621861113
-208.299790060561	13.7824299409159	1.42519621861115
-193.754682060561	13.8598599409159	2.40241621861115
-177.250357060561	14.0183299409159	1.98565621861113
-162.938835060561	13.7147799409159	0.518016218611139
-148.273492060561	13.8646099409159	-1.78809378138878
-132.974905060561	13.8718899409159	-4.50505378138888
-117.813019060561	13.7349699409159	-6.02216378138887
-103.129424660561	12.3267899409159	-7.92695378138886
-89.8211812605612	9.79628994091593	-9.54790378138881
-74.5559590605612	7.18723994091594	-9.64249378138882
-247.535920060561	34.9632399409159	2.54534621861113
-237.005910060561	30.7047999409159	2.43787621861113
-223.098800060561	28.5813599409159	-0.6842737813888
-208.115470060561	28.5182499409159	-0.155403781388785
-193.252997060561	27.5092299409159	1.62552621861112
-177.968831060561	28.3329699409159	1.87896621861117
-163.184704060561	28.5607199409159	-0.235213781388799
-148.110399060561	28.7091399409159	-3.26658378138889
-132.905332060561	28.7199699409159	-6.16951378138886
-118.497690060561	28.7575499409159	-8.8508237813888
-109.046339060561	33.369219940916	-10.1952037813888
-248.623610060561	39.5334699409159	2.11237621861116
-238.215450060561	39.5682999409159	0.893586218611131
-223.744870060561	39.7412399409159	0.410006218611203
-211.726210060561	38.6085899409159	1.9739162186112
-177.549922060561	36.3082999409159	3.33111621861115
-161.703662060561	38.3089899409159	3.02319621861114
-147.718800060561	40.5422799409159	0.105606218611221
-132.518360060561	42.0629799409159	-2.77127378138886
-117.591580060561	42.6356099409159	-4.61537378138888
-104.059116460561	45.2768999409159	-7.85959378138879
-92.4183321605612	50.1410599409159	-10.1233237813888
142.855969939439	50.8649299409159	-10.2688137813889
153.875619939439	49.5538799409159	-8.72589378138888
165.973929939439	49.0324399409159	-6.43355378138888
181.687119939439	47.7300099409159	-4.60137378138881
196.891219939439	46.2232599409159	-3.99805378138884
211.041269939439	44.4608299409159	-3.02816378138882
227.398189939439	45.2614399409159	-4.27247378138884
241.559299939439	45.3120399409159	-3.49808378138883
257.652369939439	45.9897699409159	-4.5406337813888
271.823819939439	45.8222699409159	-4.37719378138879
289.456489939439	43.0070799409159	-3.27612378138886
-110.854404060561	51.4379699409159	-2.66886378138886
-100.420108960561	52.4062299409159	-5.10890378138884
-88.0649760605612	54.1559499409159	-8.69966378138887
-74.6158900605612	58.3115299409159	-10.3090537813888
-60.6398110605612	60.342689940916	-10.6688837813889
51.5192899394388	62.5268599409159	-10.6688837813889
62.0794099394389	60.2074499409159	-9.47846378138884
77.6122599394388	58.6361799409159	-8.8653637813888
91.6016399394389	57.1678399409159	-8.22271378138884
106.516639939439	55.7314999409159	-7.50226378138885
122.223599939439	55.0378299409159	-6.90789378138879
137.088279939439	55.3506499409159	-6.43415378138879
151.213409939439	54.2566099409159	-3.83813378138886
166.335549939439	52.9244199409159	0.211226218611138
180.313789939439	52.1605099409159	3.04536621861118
190.597289939439	51.5304899409159	3.33111621861115
201.052629939439	-54.6729830590841	10.3311462186112
208.914639939439	-57.3932940590841	9.53118621861115
235.474499939439	-65.1843140590841	11.3311262186112
196.429489939439	-48.2126070590841	11.3311862186112
-236.197430060561	-28.0454160590841	15.0242362186112
-224.962560060561	-27.6321620590841	12.6082162186112
185.782999939439	-27.5018740590841	8.33116621861119
-246.315580060561	-15.5583920590841	18.3310962186112
-238.060580060561	-16.2198170590841	10.9608662186111
-222.731160060561	-17.2205570590841	7.66139621861117
-210.414230060561	-14.0261580590841	11.2557262186112
-200.252820060561	-8.78371305908407	18.3311562186111
-66.2336420605612	-8.97378505908407	13.3311062186112
-57.9822190605612	-10.1305770590841	9.83117621861118
-43.2318760605612	-12.2249500590841	10.3309662186112
-28.0795190605612	-15.3709950590841	10.1690762186112
-13.0171710605611	-17.4550340590841	9.78564621861122
2.24649793943885	-18.9819640590841	10.1545962186111
16.4438999394388	-18.2022080590841	10.4241262186112
31.0797999394388	-16.2939950590841	10.5455362186112
47.0483099394389	-13.7761390590841	10.0560662186112
62.3254299394388	-10.9789220590841	10.5311762186112
76.8102999394388	-9.12544105908407	10.9501362186112
90.3843299394389	-10.3399900590841	11.1168562186111
106.813209939439	-13.3302510590841	10.5811262186112
122.719149939439	-15.6700170590841	9.22005621861122
140.420869939439	-17.0143100590841	13.0811862186112
151.347809939439	-18.3311250590841	9.22005621861122
168.765779939439	-19.7659580590841	14.5811362186111
175.743549939439	-21.6277470590841	15.3311362186112
-237.116610060561	-1.34640905908406	11.3140262186112
-228.983030060561	1.43772994091594	5.54178621861112
-206.628880060561	-4.71454905908407	6.67028621861121
-193.648921060561	-0.975236059084061	7.96757621861122
-178.379969060561	0.734172940915934	8.49698621861117
-163.317458060561	0.65609094091594	8.41872621861117
-148.773392060561	-0.995882059084061	9.72728621861119
-132.971459060561	-1.08997505908406	9.3886162186112
-117.976328060561	-1.93372405908407	9.31678621861121
-102.924876860561	-2.54913405908407	9.05542621861122
-88.2315100605612	-4.76865505908407	10.6811462186112
-74.0554230605612	-7.21824905908407	9.78820621861121
-352.747050060561	10.6531099409159	18.3309762186111
-346.831920060561	18.4949599409159	18.2310862186111
-331.860720060561	21.2183799409159	18.3311562186111
-250.680730060561	17.2296599409159	16.0113462186112
-238.752470060561	13.6283699409159	10.8967362186112
-226.437840060561	9.70030994091593	5.14744621861119
-201.771100060561	7.25420994091594	4.33115621861113
-188.898460060561	13.8625199409159	4.42813621861116
-182.540113060561	12.4443799409159	4.51319621861113
-352.885690060561	23.1921199409159	17.0533562186112
-343.371560060561	24.0146999409159	16.8243562186111
-330.813450060561	24.0252099409159	16.4630862186111
-312.908160060561	25.0425599409159	17.9977862186111
-264.579490060561	29.7405899409159	12.8417462186111
-253.223880060561	28.4262799409159	9.31214621861121
-241.136750060561	25.7117699409159	5.11776621861115
-192.160012060561	34.8401299409159	4.84650621861116
-180.637354060561	34.5587199409159	4.33109621861116
-266.067940060561	37.329099940916	6.83121621861116
-252.543270060561	37.8156099409159	5.26450621861119
-205.212130060561	38.6365899409159	5.10035621861116
-193.691166060561	37.5088399409159	6.73650621861122
-177.841829060561	38.2526599409159	5.44391621861118
-164.143377060561	40.7664299409159	4.66464621861118
200.764359939439	50.6712399409159	5.53117621861121
212.675599939439	48.9096599409159	6.58111621861113
225.513399939439	48.6048799409159	7.07041621861115
242.045009939439	49.2303599409159	7.21995621861116
255.898359939439	48.8203499409159	7.40258621861112
269.857199939439	50.1398499409159	6.33113621861114
173.783869939439	53.6083699409159	4.33115621861113
183.372469939439	52.7859399409159	4.53107621861115
195.070859939439	51.8762999409159	5.33120621861116
-262.204620060561	-42.5159820590841	31.8696362186112
-254.652520060561	-41.2463920590841	31.4230262186112
-241.440160060561	-39.5479090590841	30.6228262186111
-251.078090060561	-32.3388800590841	28.2106862186111
-239.527090060561	-34.3655270590841	23.0870162186112
-223.783960060561	-31.0430230590841	25.1534462186112
-215.155630060561	-24.2098350590841	24.8311662186111
189.086409939439	-27.0911750590841	19.3311462186112
-262.936550060561	-11.6932020590841	31.3312862186111
-252.888140060561	-14.8130430590841	26.1259562186111
-244.935920060561	-23.2155550590841	19.3311462186112
-207.818140060561	-16.5566430590841	25.3977062186112
-199.693330060561	-9.30641605908407	25.9978062186111
-66.3819290605612	-8.74517105908407	28.3311462186112
-57.6257500605612	-10.4662330590841	26.2061862186112
-43.6510270605612	-12.5768040590841	26.1812062186112
-28.8985460605612	-15.2436420590841	26.0679662186112
-13.8609870605612	-17.6737530590841	25.3312462186112
1.89097093943885	-19.2416160590841	26.2135162186111
16.1258899394389	-18.7974870590841	25.9979262186112
31.8185199394388	-17.1223060590841	25.6354662186111
46.5668899394388	-14.8072990590841	25.8765662186111
61.1445699394389	-11.9306370590841	25.3311262186112
73.1009099394388	-9.78446805908406	25.4848462186111
92.6698999394389	-9.79092005908407	23.4740262186112
107.788769939439	-12.2669640590841	26.0811362186112
118.578809939439	-13.8292690590841	26.3311162186112
146.709319939439	-16.1617770590841	32.8311762186112
168.070459939439	-19.2502590590841	20.3311362186112
175.523189939439	-21.2777560590841	19.3311462186112
-356.377480060561	4.13213994091594	26.1537362186112
-342.269350060561	2.39196994091594	24.9451262186111
-329.600200060561	2.27366994091593	28.1511462186111
-313.846190060561	3.12841994091594	32.0286662186111
-304.440740060561	5.81494994091593	31.4978262186112
-279.295130060561	4.64125994091594	33.2835762186112
-267.384710060561	-0.29176505908407	31.1263662186112
-252.843590060561	-1.15727605908407	23.5099662186111
-244.553460060561	0.816702940915931	20.0511062186112
-192.466149060561	-6.98866005908407	25.5882662186112
-178.192386060561	-4.68055905908407	24.9264162186111
-162.748614060561	-3.55911305908406	25.4595162186112
-149.146614060561	-3.35639705908407	26.9862862186112
-133.294956060561	-3.31744605908407	28.4644262186111
-118.139702060561	-3.09030705908407	26.6771762186112
-102.609842560561	-3.33342705908407	25.7385262186112
-88.0706584605612	-5.11843705908406	26.0453662186112
-73.5545730605612	-7.42552405908406	25.6469762186111
81.5062699394388	-8.52283805908406	27.3311662186112
87.9250799394388	-8.42146605908406	28.3311462186112
-366.717910060561	6.95507994091593	32.8311762186112
-356.349140060561	12.3425999409159	23.0429662186111
-343.062860060561	13.8259899409159	22.0976362186112
-328.333590060561	13.5019599409159	23.1952562186112
-313.666610060561	13.2370199409159	25.4049762186112
-298.973790060561	12.2681199409159	27.9705962186112
-282.729300060561	13.4938999409159	27.1420362186112
-268.191580060561	13.8295199409159	25.1247162186111
-254.705340060561	11.3125599409159	21.4137362186112
-244.935920060561	7.78938994091594	19.3311462186112
-354.483670060561	21.6301899409159	19.5811262186112
-339.946490060561	21.6301999409159	19.5811862186112
-328.405380060561	21.6754199409159	19.9145562186112
-314.287410060561	23.0144899409159	19.6644562186111
-279.930680060561	21.8494899409159	21.3311762186111
-267.490520060561	22.9699599409159	20.4585662186112
-260.003720060561	22.6257099409159	20.1311562186112
-278.506880060561	-48.2338740590841	45.5127862186112
-269.685820060561	-45.8203370590841	40.9462362186112
-253.718900060561	-44.1735430590841	40.1066462186112
-239.609720060561	-40.4522050590841	40.4850762186112
-265.054330060561	-35.0843820590841	41.2311462186111
-257.842750060561	-29.5799820590841	38.5993062186112
-232.451410060561	-38.1054210590841	39.3311262186111
-222.930690060561	-30.3659220590841	40.9560062186112
-214.953630060561	-23.9065660590841	34.3311362186112
192.927509939439	-25.8772230590841	34.3311362186112
-325.071320060561	-9.36900105908406	45.8310762186112
-313.006060060561	-9.58808505908407	44.7239162186112
-297.437680060561	-9.95276905908407	44.2257462186112
-282.167670060561	-10.3478060590841	42.0687062186111
-268.949790060561	-13.3759900590841	39.3113362186112
-257.864430060561	-19.3641710590841	39.7645762186112
-207.514530060561	-16.1757400590841	41.5153962186112
-199.791240060561	-9.34881705908407	39.5811662186112
-57.8387060605612	-9.98574505908406	42.1168662186112
-42.9711730605612	-12.4134050590841	40.5810362186112
-27.8851180605612	-14.9061230590841	41.1169462186112
-13.6789770605611	-17.2712650590841	40.3311162186112
2.52014293943885	-18.8783480590841	42.0958862186112
16.5983999394388	-18.7818710590841	40.3309962186111
31.7220699394388	-17.2897350590841	40.7311162186111
47.0483699394389	-14.9074420590841	41.4643762186112
61.2630399394388	-12.2064950590841	41.2257762186111
74.1391299394388	-9.96631405908406	40.4220662186112
96.0308599394388	-8.97806105908407	40.8311362186111
103.829649939439	-10.1499260590841	42.6168362186111
119.943629939439	-12.7413940590841	41.9311462186112
132.628839939439	-13.8919650590841	46.6644062186111
152.116239939439	-15.9070490590841	42.1311762186112
-366.491650060561	4.97348994091594	36.9978462186111
-357.065260060561	1.50503994091593	38.2876262186112
-342.653930060561	-3.80083905908407	39.8168462186111
-326.932570060561	-4.25404305908407	36.7388662186112
-312.586960060561	-4.14140505908407	36.3062462186111
-298.187660060561	-1.39714005908406	38.3666062186112
-283.505650060561	-1.79466605908407	36.7209162186112
-272.687810060561	-5.95288005908407	34.9116862186112
-192.337313060561	-7.10383105908406	40.9025462186111
-178.582215060561	-5.29754905908407	40.5979662186111
-162.821391060561	-3.90283805908406	42.2311362186112
-147.397173060561	-3.46434905908406	40.8811462186112
-133.365822060561	-3.19324405908407	43.3310762186112
-118.549145060561	-2.95167405908407	41.9810862186112
-103.584520960561	-3.07966005908407	41.2311462186111
-88.0778869605612	-4.85124405908406	41.6644662186112
-73.6621020605612	-6.97186605908406	41.3311562186112
-65.0308950605612	-8.62896505908406	39.3311262186111
80.7266099394389	-8.31711305908407	39.1644762186112
88.1954699394388	-8.17448705908407	37.7061862186112
-294.643520060561	7.45152994091594	35.3811862186112
-287.859920060561	6.63855994091593	34.3311362186112
-281.728910060561	-54.1928080590841	60.2061662186112
-281.856060060561	-47.1850630590841	54.6530962186111
-268.748090060561	-50.6068540590841	55.9518262186112
-253.814970060561	-44.6759240590841	54.6169162186112
-239.864690060561	-40.8846510590841	55.0310462186112
-278.201640060561	-36.9243660590841	57.9675362186112
-268.948710060561	-31.2949720590841	54.7597862186112
-260.551080060561	-24.4204850590841	52.3311362186112
-232.210460060561	-37.4859650590841	56.0811662186111
-223.679690060561	-29.9829840590841	55.5584962186112
-327.016790060561	-9.99185505908407	52.3311962186112
-311.744360060561	-10.7089430590841	52.0931362186111
-299.181060060561	-11.0899360590841	52.3748262186111
-282.506840060561	-13.1371920590841	53.7311962186112
-268.010500060561	-18.2159250590841	56.0629262186112
-260.371490060561	-21.4896050590841	51.3311562186112
-216.632990060561	-23.6111810590841	62.3311262186111
-208.558630060561	-16.4526780590841	55.7014862186112
-200.092210060561	-9.05293205908407	55.3310962186112
-55.5242090605612	-9.94366405908406	56.5811262186112
-43.4211620605612	-11.8898820590841	56.2258862186111
-28.5782750605612	-14.1271650590841	56.4644262186111
-12.9214020605612	-16.7732610590841	56.3936762186111
1.84643093943884	-18.4007140590841	58.8310862186112
16.5132099394388	-18.5386690590841	55.1003662186111
32.4050499394388	-17.2969920590841	55.7521462186111
47.1269799394389	-14.9801230590841	56.7061162186112
62.1828899394388	-12.3286550590841	56.6469962186111
75.4795699394388	-9.97286305908407	57.4422962186112
108.134759939439	-9.77949805908407	57.2311762186112
120.419429939439	-11.7339640590841	57.6436962186112
133.400599939439	-13.3615060590841	56.4561962186112
151.411899939439	-15.1110960590841	55.2402062186111
169.746959939439	-16.5616800590841	59.3311062186112
177.853669939439	-17.2955170590841	57.9311762186112
-339.311850060561	-7.69563805908406	50.7310562186112
-334.220890060561	-8.60247805908407	49.6644262186111
-192.715870060561	-7.14170205908407	51.9464462186112
-177.883775060561	-5.32646505908406	51.4220462186111
-168.679939060561	-4.21699105908406	53.3311262186111
-147.812193060561	-3.50663805908406	50.4850062186112
-134.949510060561	-3.27581905908407	52.7061662186111
-117.509985060561	-2.80335605908406	51.8866662186112
-102.021570760561	-3.09872605908407	51.9978262186112
-86.3117179605612	-4.83324405908407	53.4561762186112
-72.6513170605612	-6.85666505908407	54.2597062186112
-63.3947530605612	-8.41596005908407	57.7311362186111
82.3601599394388	-8.02124305908407	53.5311562186112
91.5689599394389	-7.56571505908407	56.3728062186112
102.750789939439	-8.42014705908406	61.8311062186112
-283.516420060561	-54.8837330590841	70.3810362186111
-291.742250060561	-50.3067410590841	76.6644962186112
-287.129870060561	-45.9647890590841	69.9978362186112
-268.364940060561	-50.2852720590841	71.3786962186112
-253.451210060561	-44.0426060590841	70.4890962186112
-240.034890060561	-40.7185890590841	70.9674862186112
-281.074900060561	-33.9635910590841	72.1408062186112
-270.475880060561	-27.4322480590841	67.7478762186111
-233.163610060561	-36.8354950590841	72.3311162186112
-223.839970060561	-28.8136300590841	70.8048262186112
-266.312620060561	-21.1498890590841	65.7597062186112
-216.263390060561	-23.2065400590841	67.3311262186112
-212.502650060561	-19.7606830590841	65.8311162186112
-43.8233480605612	-11.7403570590841	64.3311662186111
-29.6566720605612	-13.7332600590841	65.9311862186112
-12.2213150605612	-16.5903640590841	68.2311562186112
3.54662393943885	-18.3537310590841	70.3311462186111
17.0689699394389	-18.4157040590841	69.2724462186112
31.2978499394388	-17.5286010590841	68.0311762186112
45.6970599394389	-15.3910890590841	67.9311662186112
61.0794999394389	-12.9185990590841	67.0310762186112
76.7668299394389	-9.97575405908406	66.8311562186111
85.3497999394389	-9.00241705908407	66.3311362186112
109.724159939439	-9.56017505908406	65.8311762186111
122.782419939439	-11.5526170590841	67.7061562186112
138.694399939439	-13.3510680590841	69.5130762186111
152.395869939439	-14.5611760590841	68.5453862186112
166.255059939439	-15.5543390590841	71.4645262186112
181.839609939439	-17.0098320590841	73.3311062186112
100.741279939439	-8.17675905908406	64.3311662186111
-292.248270060561	-54.9880790590841	87.1311962186112
-284.943460060561	-55.5899890590841	86.0645062186112
-293.242370060561	-46.6656160590841	84.1976862186111
-277.096930060561	-53.0886240590841	87.5311362186112
-267.299860060561	-49.2297820590841	86.8605262186112
-254.958680060561	-43.8833240590841	85.8310962186112
-241.330370060561	-40.8785420590841	82.7755862186111
-288.881210060561	-38.2081530590841	80.3311362186112
-235.100020060561	-37.4317320590841	84.3311462186112
-229.193760060561	-32.5813070590841	79.3311462186112
-294.877770060561	-55.6956120590841	98.4977962186112
-285.167740060561	-55.7371270590841	98.3311462186112
-297.201190060561	-52.9123690590841	97.8311162186112
-278.119070060561	-53.4619210590841	97.3311562186112
-272.594290060561	-51.2126280590841	95.9311062186111

