9.99156405	10.481889	9.885337
9.957051	10.486704	9.888923
9.941611	10.500612	9.892049
9.9660885	10.49343	10.0131525
9.9804027	10.494161	10.00582037
9.78512	10.659331	10.120235
9.787536	10.659279	10.129465
9.760222	10.66567	10.121708
10.155317	10.691399	9.710888
10.152966	10.680812	9.716672
10.165376	10.671291	9.727291
10.168978	10.668153	9.730258
10.0143246	10.488376	9.893484
9.99156405	10.481889	9.885337
9.9344478	10.484025	9.897484
9.895827	10.50466	9.999241515
10.0153042	10.509263	10.00519522
10.0407618	10.507103	9.9757636
10.0545398	10.500065	9.9676327
9.780629	10.657075	10.119722
9.771502	10.687818	10.131269
9.780638	10.686812	10.13257
10.178394	10.664916	9.732609
10.183913	10.674173	9.727686
10.176521	10.682676	9.721201
10.161255	10.671219	9.723111
10.0420149	10.486277	9.9124752
10.0278428	10.492744	9.9037395
10.0100132	10.489901	9.890962
9.970586	10.488333	9.886654
9.896585	10.506816	9.9440222
9.888088	10.509151	9.9633556
9.9535739	10.506999	10.0197709
9.9683273	10.503075	10.0104779
10.0578568	10.500257	9.928611
10.0528608	10.5004	9.9245867
9.769104	10.660089	10.112582
9.762855	10.683638	10.113571
9.763555	10.68678	10.125015
9.78755	10.679279	10.142707
9.789873	10.666357	10.132114
10.173086	10.660628	9.739417
10.173903	10.67078	9.731384
10.147586	10.68274	9.715048
10.165551	10.664497	9.733355
10.0100132	10.489901	9.890962
9.9818754	10.48434	9.884678
9.9489576	10.50377	9.889318
9.9331599	10.499638	9.89685
9.897384	10.50264	9.9330222
9.898872	10.507933	9.9331983
9.897823	10.506169	9.9402242
9.891063	10.503814	9.9891313
9.9366853	10.500943	10.0144072
9.9766806	10.497255	10.00849503
10.0618844	10.504305	9.955134
9.781911	10.66096	10.112639
9.775068	10.65959	10.11264
9.775068	10.65959	10.11264
9.767989	10.666165	10.102054
9.767989	10.666165	10.102054
9.789502	10.677475	10.131736
10.175163	10.664876	9.738973
10.180657	10.681363	9.727503
10.172873	10.686972	9.719951
10.158055	10.692457	9.715187
10.149354	10.692042	9.713354
10.0421989	10.49658	9.9154369
10.0278428	10.492744	9.9037395
9.9206773	10.50872	9.9040038
9.894132	10.510899	9.9741932
9.894132	10.510899	9.9741932
9.9120206	10.503071	10.0106543
9.9988507	10.508584	10.0089086
10.0351526	10.505814	9.9831449
10.0558979	10.504847	9.9306162
9.781911	10.66096	10.112639
9.769104	10.660089	10.112582
9.771502	10.687818	10.131269
10.172805	10.670049	9.732582
10.165045	10.678744	9.723451
10.165415	10.673894	9.72767
10.164129	10.671155	9.731004
10.0456233	10.499602	9.9204349
10.0143246	10.488376	9.893484
9.970586	10.488333	9.886654
9.9566211	10.492013	9.888781
9.897779	10.514832	9.9439364
9.888088	10.509151	9.9633556
9.9094912	10.505945	10.00927068
9.9454602	10.504772	10.0175473
9.781911	10.66096	10.112639
9.78512	10.659331	10.120235
10.174648	10.667279	9.738255
10.164212	10.693219	9.723065
10.145795	10.685878	9.714154
10.148995	10.679103	9.721885
10.162049	10.680225	9.723275
10.157919	10.666249	9.734159
10.0217342	10.494987	9.9000728
9.970586	10.488333	9.886654
9.9235068	10.494867	9.9018301
9.9206773	10.50872	9.9040038
9.9206773	10.50872	9.9040038
9.898904	10.513614	9.9370997
9.896585	10.506816	9.9440222
9.9595871	10.50581	10.0187717
9.9774985	10.507538	10.0164076
9.99250098	10.509406	10.016919
10.0153042	10.509263	10.00519522
10.02042	10.50254	9.99100637
10.0292172	10.509582	9.99220717
9.78512	10.659331	10.120235
9.781911	10.66096	10.112639
9.77077	10.663004	10.104738
9.780638	10.686812	10.13257
9.786896	10.682561	10.133942
10.178693	10.677423	9.734664
10.152105	10.693958	9.715929
10.167197	10.676041	9.728843
10.154018	10.663427	9.737909
10.0278428	10.492744	9.9037395
10.0217342	10.494987	9.9000728
9.9331599	10.499638	9.89685
9.891063	10.503814	9.9891313
9.9274713	10.498544	10.0157741
10.00238843	10.510001	10.0151461
10.0364831	10.508652	9.9837253
10.0531722	10.508412	9.9676347
10.0581562	10.508093	9.9381033
9.78512	10.659331	10.120235
10.172141	10.662756	9.744836
10.164781	10.678752	9.728227
10.165727	10.66102	9.738617
10.163972	10.676568	9.730669
10.0501394	10.502772	9.9240853
10.0217342	10.494987	9.9000728
9.99172333	10.496724	9.886173
9.9206773	10.50872	9.9040038
9.898872	10.507933	9.9331983
9.89133	10.522943	9.951122
9.9002421	10.505031	10.00294013
10.0425558	10.508321	9.9771968
10.0582117	10.510959	9.9470382
9.77077	10.663004	10.104738
9.780638	10.686812	10.13257
9.788926	10.677726	10.124734
10.17267	10.667195	9.744564
10.174502	10.687235	9.728226
10.16103	10.694161	9.719315
10.144889	10.680401	9.719815
10.0278428	10.492744	9.9037395
9.898872	10.507933	9.9331983
9.898904	10.513614	9.9370997
9.894293	10.511634	9.9828183
9.9173467	10.505614	10.0132108
9.9791848	10.506492	10.0101102
9.99250098	10.509406	10.016919
10.0482879	10.508544	9.9724155
10.0581562	10.508093	9.9381033
10.0541965	10.511498	9.9317539
9.762855	10.683638	10.113571
9.786484	10.682297	10.125473
9.790525	10.669219	10.123
9.790525	10.669219	10.123
10.0278428	10.492744	9.9037395
9.9757492	10.496177	9.885498
9.889411	10.518301	9.9642877
9.898093	10.516141	9.9870291
9.9003279	10.514875	9.99496446
9.9366853	10.500943	10.0144072
10.0465809	10.504097	9.9223667
9.790525	10.669219	10.123
9.781911	10.66096	10.112639
9.758426	10.673818	10.107502
9.780638	10.686812	10.13257
10.172729	10.671806	9.738701
10.170051	10.691938	9.725615
10.142269	10.689602	9.719467
10.157224	10.678509	9.72708
10.154637	10.670864	9.732903
10.0421989	10.49658	9.9154369
10.0217342	10.494987	9.9000728
10.00593295	10.498764	9.889458
9.9757492	10.496177	9.885498
9.9594147	10.50444	9.886757
9.937318	10.507247	9.893757
9.890246	10.512105	9.9677109
9.898093	10.516141	9.9870291
9.898213	10.515458	9.99085187
9.898429	10.508225	9.99832574
9.9535739	10.506999	10.0197709
10.0153042	10.509263	10.00519522
10.0559898	10.511634	9.9602554
10.0582117	10.510959	9.9470382
10.0558979	10.504847	9.9306162
10.0541965	10.511498	9.9317539
9.78734	10.663702	10.115707
9.776193	10.661515	10.107104
9.767989	10.666165	10.102054
9.771502	10.687818	10.131269
10.136208	10.685539	9.724091
10.149277	10.669766	9.734454
10.0230236	10.507143	9.898518
10.00962477	10.495263	9.890979
9.9879704	10.490045	9.885141
9.976097	10.501606	9.886001
9.9489576	10.50377	9.889318
9.888088	10.509151	9.9633556
9.897575	10.515207	9.9748478
9.9182485	10.503051	10.0129701
9.9407408	10.505678	10.018198
9.9791848	10.506492	10.0101102
10.0571215	10.511969	9.9533017
9.775582	10.662441	10.0988425
9.786896	10.682561	10.133942
10.17899	10.681059	9.736095
10.156186	10.694557	9.719012
10.1442	10.673866	9.729439
10.150615	10.673634	9.731373
10.153332	10.661391	9.743076
10.163987	10.659962	9.745322
10.0421989	10.49658	9.9154369
10.0230236	10.507143	9.898518
9.9489576	10.50377	9.889318
9.937318	10.507247	9.893757
10.0224843	10.513211	10.00321957
10.0482879	10.508544	9.9724155
10.0531722	10.508412	9.9676347
10.0526844	10.514217	9.9630658
10.0505327	10.513458	9.9257986
9.776193	10.661515	10.107104
9.764832	10.682125	10.106969
9.789794	10.674712	10.121133
10.173278	10.675455	9.741735
10.17766	10.685754	9.733739
10.138928	10.681826	9.721273
10.139998	10.677746	9.724409
10.0421989	10.49658	9.9154369
9.99172333	10.496724	9.886173
9.9410917	10.509514	9.892017
9.898904	10.513614	9.9370997
9.897575	10.515207	9.9748478
9.9288501	10.509223	10.0150048
10.0175573	10.512756	10.00852018
10.032232	10.506959	9.9863592
10.0358624	10.514836	9.9824171
10.0449314	10.514648	9.9700758
10.0563961	10.512129	9.9382122
9.786484	10.682297	10.125473
9.790525	10.669219	10.123
10.170051	10.691938	9.725615
10.0230236	10.507143	9.898518
9.99719959	10.498935	9.887425
9.976097	10.501606	9.886001
9.9206773	10.50872	9.9040038
9.890525	10.521358	9.9575448
10.0494668	10.516951	9.9350797
9.785779	10.664125	10.108829
9.765106	10.672057	10.0993236
9.77178	10.685499	10.112572
10.173024	10.680465	9.742803
10.14621	10.693119	9.71908
10.148764	10.663662	9.740797
10.148262	10.663	9.744481
10.0449614	10.509271	9.9219252
10.0230236	10.507143	9.898518
10.0125278	10.504692	9.892704
10.0296364	10.510305	9.99252972
10.0538564	10.515287	9.9394226
9.788926	10.677726	10.124734
10.144364	10.668604	9.736893
10.0230236	10.507143	9.898518
10.0125278	10.504692	9.892704
9.99865788	10.502632	9.88822
9.99719959	10.498935	9.887425
9.9594147	10.50444	9.886757
9.898904	10.513614	9.9370997
9.897779	10.514832	9.9439364
9.892377	10.525566	9.9693404
9.9115563	10.509414	10.00755131
9.9486705	10.512967	10.016925
9.9708115	10.504983	10.0115948
10.00935571	10.511362	10.0139932
10.0429063	10.517386	9.9732802
9.790525	10.669219	10.123
9.786632	10.664816	10.10272
9.765106	10.672057	10.0993236
10.170034	10.672796	9.74649
10.145166	10.694604	9.723443
10.134618	10.67553	9.730165
10.140098	10.669594	9.736487
10.146268	10.664888	9.749432
10.155041	10.659958	9.749737
10.0449614	10.509271	9.9219252
9.976097	10.501606	9.886001
9.899057	10.521247	9.9747572
9.9033519	10.521171	9.9809752
9.9047487	10.522875	9.9885094
9.9076213	10.511538	10.00259801
9.9229815	10.516608	10.0110483
10.0400125	10.515626	9.9762303
10.0449314	10.514648	9.9700758
10.0519275	10.516588	9.9621033
10.0531203	10.518804	9.9526765
9.780448	10.662664	10.105668
9.771426	10.667475	10.0888537
9.782263	10.684628	10.112323
9.790405	10.676093	10.114792
10.167511	10.669451	9.749498
10.169801	10.689075	9.737865
10.134137	10.679926	9.727044
10.0175294	10.51183	9.896479
10.00999403	10.507802	9.891764
10.00298284	10.507175	9.890228
9.99172333	10.496724	9.886173
9.9477001	10.511462	9.890574
9.893112	10.525123	9.9568666
9.893539	10.518832	9.9706834
9.99250098	10.509406	10.016919
10.0493893	10.5186	9.9645632
9.78734	10.663702	10.115707
9.764832	10.682125	10.106969
9.776954	10.685415	10.113222
10.176759	10.684245	9.737563
10.154448	10.697044	9.729862
10.137037	10.689738	9.726842
10.134619	10.67201	9.737645
10.142736	10.666541	9.742066
10.0125278	10.504692	9.892704
9.898904	10.513614	9.9370997
9.897779	10.514832	9.9439364
9.891185	10.523111	9.9635464
9.9045175	10.524233	9.9787724
9.898213	10.515458	9.99085187
9.9052094	10.51674	9.999107383
9.9602734	10.508372	10.0196899
10.0494464	10.52185	9.945344
10.0494668	10.516951	9.9350797
9.789294	10.668728	10.109733
9.775582	10.662441	10.0988425
9.789713	10.671343	10.118352
10.00298284	10.507175	9.890228
9.99865788	10.502632	9.88822
9.9652798	10.513794	9.88762
9.9217443	10.5285	9.9064768
9.898904	10.513614	9.9370997
9.9023595	10.520452	9.9945437
9.9108557	10.51563	10.00434013
10.0281075	10.513167	9.99482953
10.0494668	10.516951	9.9350797
10.0449614	10.509271	9.9219252
9.79188	10.669706	10.1049
9.76762	10.669375	10.0958948
9.786351	10.683004	10.112165
10.168621	10.683143	9.745685
10.158852	10.692257	9.742432
10.163892	10.692489	9.735475
9.9827057	10.502261	9.885314
9.9477001	10.511462	9.890574
9.9264409	10.517482	9.9007583
9.892377	10.525566	9.9693404
9.892377	10.525566	9.9693404
9.9159475	10.515598	10.00797247
10.0129976	10.515474	10.0119549
10.0494668	10.516951	9.9350797
10.0492608	10.518313	9.9318238
10.024234	10.529418	9.9134956
10.0230236	10.507143	9.898518
10.0205254	10.513143	9.897798
10.00999403	10.507802	9.891764
9.976097	10.501606	9.886001
9.9217443	10.5285	9.9064768
9.893112	10.525123	9.9568666
10.0493893	10.5186	9.9645632
10.0468281	10.520464	9.9372446
10.0505327	10.513458	9.9257986
10.0426344	10.518149	9.9220948
10.0422017	10.520568	9.9179463
9.786632	10.664816	10.10272
9.77934	10.662684	10.0925858
10.1679	10.687511	9.742887
10.131991	10.682477	9.729949
10.131972	10.675606	9.733755
10.0429953	10.524388	9.9254489
9.9758391	10.51569	10.0168216
10.0500217	10.522424	9.9528757
9.771426	10.667475	10.0888537
10.161762	10.682872	9.750262
10.154252	10.695143	9.738484
10.0205254	10.513143	9.897798
10.0151992	10.517953	9.895537
10.00409542	10.514792	9.891834
9.99630139	10.512536	9.888391
9.9652798	10.513794	9.88762
9.9594147	10.50444	9.886757
9.9477001	10.511462	9.890574
9.893929	10.529203	9.9523216
9.896684	10.530241	9.9641476
9.9070413	10.526568	9.9858347
9.9552358	10.515087	10.0181537
10.0167406	10.521854	10.0107465
10.0362851	10.521666	9.9845153
10.0450356	10.526788	9.9498123
9.782403	10.662784	10.0978174
9.766728	10.678473	10.0974098
9.771973	10.684964	10.0982517
10.164457	10.676872	9.751185
10.131572	10.67359	9.743132
10.0205254	10.513143	9.897798
10.00878525	10.51474	9.893492
9.9315687	10.518672	9.897583
9.897779	10.514832	9.9439364
9.9609504	10.514005	10.0180384
9.9671452	10.514372	10.0173729
10.00314731	10.514935	10.0166408
10.042032	10.522372	9.9751532
10.0489829	10.518616	9.9275759
10.0233206	10.522656	9.899822
9.794677	10.673499	10.102124
9.782403	10.662784	10.0978174
9.767116	10.67496	10.0947958
10.16006	10.686385	9.749009
10.1301	10.679538	9.73465
10.139864	10.667834	9.745863
9.9885589	10.508975	9.885822
9.9761979	10.516376	9.886654
9.9548454	10.516329	9.888561
9.9548454	10.516329	9.888561
9.898904	10.513614	9.9370997
9.9301879	10.512017	10.0141445
10.031523	10.521881	9.99182353
10.0450356	10.526788	9.9498123
9.77934	10.662684	10.0925858
9.771637	10.673638	10.0824265
9.793493	10.677343	10.104399
10.156364	10.691048	9.74594
10.134285	10.691375	9.737065
9.9761979	10.516376	9.886654
9.9423699	10.524297	9.895842
9.898904	10.513614	9.9370997
9.898924	10.535806	9.9575312
9.9051579	10.524149	9.99303511
9.9084441	10.524297	9.99807305
9.9134006	10.521674	10.00474971
9.942033	10.516508	10.0164264
9.9851157	10.516656	10.0178931
9.99727425	10.511239	10.0185458
10.0422017	10.520568	9.9179463
10.024234	10.529418	9.9134956
9.769444	10.678141	10.0907731
9.780155	10.686401	10.101945
10.156549	10.668137	9.75666
10.15266	10.682297	9.756493
10.144189	10.694089	9.741289
10.141256	10.667175	9.749924
9.9761979	10.516376	9.886654
9.9548454	10.516329	9.888561
9.9346733	10.520979	9.896293
9.9217443	10.5285	9.9064768
9.9197152	10.540073	9.9165607
9.895316	10.534313	9.9485089
9.894225	10.530269	9.9698183
9.9045175	10.524233	9.9787724
9.9707884	10.517838	10.0176404
10.0447171	10.524209	9.9416482
10.0233206	10.522656	9.899822
9.793081	10.667307	10.0939308
9.774277	10.667239	10.0802253
10.133875	10.66991	9.750435
10.158509	10.675259	9.755719
9.99630139	10.512536	9.888391
9.9652798	10.513794	9.88762
9.9264409	10.517482	9.9007583
9.9197152	10.540073	9.9165607
10.0233709	10.522309	10.00313055
10.031523	10.521881	9.99182353
10.0362851	10.521666	9.9845153
10.045365	10.5287	9.9635995
10.0481406	10.524233	9.9303879
10.0489829	10.518616	9.9275759
10.0422017	10.520568	9.9179463
10.0209993	10.519235	9.896337
9.785618	10.684145	10.106857
9.769444	10.678141	10.0907731
9.774129	10.685674	10.0952789
9.785618	10.684145	10.106857
9.793493	10.677343	10.104399
10.0233206	10.522656	9.899822
10.00649742	10.51957	9.892701
10.00409542	10.514792	9.891834
9.9197152	10.540073	9.9165607
9.898904	10.513614	9.9370997
9.9025575	10.549514	9.9403352
9.893929	10.529203	9.9523216
9.9030277	10.528524	9.9770279
9.9166066	10.519889	10.00716688
9.9552358	10.515087	10.0181537
9.99773812	10.518301	10.0171014
10.0434548	10.530149	9.9586865
10.13067	10.688101	9.736719
10.128472	10.677942	9.741415
10.129798	10.672644	9.749288
10.138306	10.66858	9.754002
10.148817	10.671259	9.758591
10.150458	10.688596	9.752326
9.99142752	10.525993	9.885051
9.9666542	10.520692	9.888284
9.9423699	10.524297	9.895842
9.9197152	10.540073	9.9165607
9.898924	10.535806	9.9575312
9.896684	10.530241	9.9641476
9.894225	10.530269	9.9698183
9.9070413	10.526568	9.9858347
9.9477675	10.518508	10.0170495
9.9859185	10.523127	10.019008
9.99065906	10.517494	10.0179202
9.787141	10.663211	10.0870645
9.775391	10.665431	10.0863802
10.0426344	10.518149	9.9220948
10.0151992	10.517953	9.895537
9.9828299	10.525103	9.885044
9.9505412	10.523634	9.891255
9.9281879	10.528983	9.9019858
9.9261723	10.538947	9.911003
9.9147004	10.53149	10.00202595
10.0378396	10.52753	9.9803449
10.042032	10.522372	9.9751532
9.784757	10.662904	10.0845699
10.149444	10.693207	9.744888
10.0200719	10.523674	9.896074
10.0209993	10.519235	9.896337
9.9423699	10.524297	9.895842
9.9281879	10.528983	9.9019858
9.894225	10.530269	9.9698183
9.9166066	10.519889	10.00716688
10.031523	10.521881	9.99182353
10.0447171	10.524209	9.9416482
9.795392	10.669942	10.0947751
9.779482	10.68672	10.0931886
9.782872	10.687291	10.0911104
9.785618	10.684145	10.106857
9.790718	10.681355	10.104428
9.791079	10.683503	10.0981499
9.9084441	10.524297	9.99807305
9.9213475	10.522077	10.00867188
9.9612738	10.520836	10.0207162
10.04303	10.532049	9.9297288
10.0425159	10.527694	9.9230258
9.99800838	10.525538	9.887399
9.9718091	10.522891	9.88738
9.9604394	10.526117	9.889023
9.898924	10.535806	9.9575312
10.128144	10.682868	9.739154
10.123867	10.681283	9.745937
10.136005	10.669694	9.758381
10.153005	10.685758	9.753896
9.789634	10.664237	10.0883591
10.0200719	10.523674	9.896074
10.010709	10.530081	9.889809
10.00817806	10.523051	9.892189
9.9828299	10.525103	9.885044
9.9505412	10.523634	9.891255
9.9261723	10.538947	9.911003
9.9197152	10.540073	9.9165607
9.898924	10.535806	9.9575312
9.89683	10.53761	9.9719373
9.9070549	10.530329	9.9802379
9.9594211	10.527586	10.022014
10.013491	10.525131	10.0142439
10.126333	10.687287	9.741747
10.142412	10.672161	9.760891
10.138939	10.693678	9.738644
10.0200719	10.523674	9.896074
10.00817806	10.523051	9.892189
9.9718091	10.522891	9.88738
9.9672075	10.528967	9.888022
9.9419104	10.532935	9.899154
9.937112	10.535442	9.9020189
9.9261723	10.538947	9.911003
9.899409	10.545095	9.9455647
9.897147	10.539778	9.948447
9.9165216	10.529071	10.00576289
10.0430448	10.530768	9.9766315
10.0423179	10.532919	9.9610271
9.9197152	10.540073	9.9165607
9.769444	10.678141	10.0907731
10.125463	10.676756	9.747693
10.14763	10.676373	9.759681
10.0460285	10.531155	9.9341867
10.024234	10.529418	9.9134956
10.024234	10.529418	9.9134956
9.99142752	10.525993	9.885051
9.9828299	10.525103	9.885044
9.899409	10.545095	9.9455647
9.927908	10.523738	10.0109078
10.0268595	10.524253	10.000292615
10.0461139	10.529422	9.9360294
9.9197152	10.540073	9.9165607
9.9197152	10.540073	9.9165607
9.79656	10.67591	10.0968553
9.79452	10.666397	10.0849228
10.12182	10.685016	9.747164
10.138862	10.673311	9.76394
10.130807	10.690664	9.739107
9.9197152	10.540073	9.9165607
9.9070549	10.530329	9.9802379
9.99434929	10.530265	10.0205146
10.017422	10.527003	10.0124811
10.0207829	10.525889	10.00841758
10.0274811	10.529642	10.00134212
10.024234	10.529418	9.9134956
9.788723	10.663071	10.0717295
10.0206236	10.532029	9.9054744
9.99142752	10.525993	9.885051
9.9604394	10.526117	9.889023
9.9517564	10.530879	9.893066
9.9423699	10.524297	9.895842
9.9419104	10.532935	9.899154
9.9225188	10.551171	9.9274557
9.9730618	10.527031	10.0185422
9.9730618	10.527031	10.0185422
10.0454795	10.528109	9.9716806
10.0409865	10.531247	9.9454294
10.0425582	10.528448	9.9415244
9.99800838	10.525538	9.887399
9.9828299	10.525103	9.885044
9.9828299	10.525103	9.885044
9.9343835	10.537355	9.9038625
9.774277	10.667239	10.0802253
9.775887	10.685079	10.0879754
10.131161	10.669051	9.756966
10.142218	10.67571	9.763566
9.9197152	10.540073	9.9165607
9.9111854	10.531231	9.99007782
9.9084441	10.524297	9.99807305
9.9471883	10.527135	10.0179972
10.00236727	10.524812	10.018412
10.024234	10.529418	9.9134956
10.0150867	10.538564	9.892773
9.778822	10.665646	10.0739802
9.775887	10.685079	10.0879754
10.11965	10.676401	9.752818
10.123191	10.67084	9.757756
10.132945	10.670748	9.763079
10.150535	10.679483	9.758024
10.00611578	10.533363	9.887773
9.99232254	10.533259	9.883314
9.9672075	10.528967	9.888022
9.9560893	10.528987	9.891334
9.937112	10.535442	9.9020189
9.9261723	10.538947	9.911003
9.9125523	10.539606	9.9834427
9.9111854	10.531231	9.99007782
9.9207375	10.528919	10.00893854
10.0409865	10.531247	9.9454294
10.0457825	10.535067	9.9366242
9.798384	10.674309	10.0923667
10.118987	10.680225	9.750766
10.125094	10.670417	9.765783
10.145881	10.691219	9.749971
10.0271997	10.535646	9.9179894
10.000567666	10.536225	9.885955
9.99738443	10.530772	9.885427
9.9766163	10.535383	9.8841
9.9724602	10.534005	9.886648
9.9601744	10.534935	9.892882
9.9601744	10.534935	9.892882
9.9469384	10.537243	9.896563
9.9352617	10.540293	9.9046062
9.9191116	10.555327	9.934748
9.9379619	10.525598	10.0159653
10.013491	10.525131	10.0142439
10.0304967	10.530776	9.9957457
10.0409446	10.535498	9.9810459
10.0454795	10.528109	9.9716806
10.0430296	10.536712	9.9728391
10.0423179	10.532919	9.9610271
10.0457825	10.535067	9.9366242
9.79452	10.666397	10.0849228
9.777369	10.668129	10.0698824
9.771637	10.673638	10.0824265
9.774682	10.680373	10.0796305
9.787587	10.686329	10.0937296
9.796099	10.680664	10.0941699
10.124784	10.691578	9.744989
10.118124	10.671235	9.761465
10.120174	10.670057	9.765602
10.132924	10.693239	9.743689
9.99232254	10.533259	9.883314
9.9601744	10.534935	9.892882
9.9601744	10.534935	9.892882
9.9587907	10.542181	9.896297
9.9493687	10.538895	9.895942
9.9228405	10.544145	9.9166685
9.9197152	10.540073	9.9165607
9.9197152	10.540073	9.9165607
9.9006804	10.547626	9.9683029
9.898838	10.542983	9.9748091
9.9147004	10.53149	10.00202595
9.9673412	10.531562	10.022638
10.0393262	10.537027	9.9539348
10.04365	10.537766	9.9404677
10.138987	10.693255	9.744779
10.0206236	10.532029	9.9054744
10.0118735	10.536911	9.890211
10.0124651	10.531778	9.890033
9.9766163	10.535383	9.8841
9.9228405	10.544145	9.9166685
9.9035902	10.543375	9.956041
9.9171579	10.541854	10.000898605
10.0333729	10.532364	9.9879465
10.117241	10.682972	9.751368
10.140567	10.679399	9.765805
10.127962	10.693998	9.748415
9.774201	10.672053	10.0755902
10.00611578	10.533363	9.887773
9.9766163	10.535383	9.8841
9.9587907	10.542181	9.896297
9.9469384	10.537243	9.896563
9.9327739	10.548345	9.9135958
9.9228405	10.544145	9.9166685
9.9228405	10.544145	9.9166685
9.9214904	10.547538	9.9218349
9.9004285	10.537119	9.9784399
9.9594211	10.527586	10.022014
10.0429925	10.535546	9.9784754
10.0443059	10.539526	9.938825
10.0429754	10.537714	9.9324905
10.112438	10.670373	9.768241
10.145816	10.682493	9.760969
10.13879	10.688185	9.761077
10.0429754	10.537714	9.9324905
10.0246304	10.539921	9.9022153
9.99817964	10.539327	9.885593
9.9869185	10.542013	9.880545
9.9687943	10.533602	9.888457
9.9228405	10.544145	9.9166685
9.899409	10.545095	9.9455647
9.898162	10.540388	9.9761385
9.9160297	10.538991	9.99102872
9.9633979	10.528137	10.0227506
10.0304967	10.530776	9.9957457
10.0390073	10.535275	9.9463787
9.774682	10.680373	10.0796305
9.783296	10.688237	10.0833822
10.145368	10.68569	9.759224
10.137276	10.691535	9.755059
9.800271	10.66896	10.0761571
9.798325	10.666033	10.0706852
9.788723	10.663071	10.0717295
9.793775	10.68494	10.0903024
10.0260104	10.543858	9.90271
9.9766163	10.535383	9.8841
9.9800387	10.54286	9.880827
9.9621752	10.541718	9.89464
9.9587907	10.542181	9.896297
9.9400222	10.545478	9.9020038
9.9383915	10.547969	9.907381
9.9327739	10.548345	9.9135958
9.9191116	10.555327	9.934748
9.9023127	10.548868	9.9439033
9.9023738	10.545215	9.9810662
9.9439775	10.533239	10.0179102
9.9790686	10.53242	10.0189581
10.0332596	10.536205	9.9896203
10.0398767	10.537215	9.9660778
10.0393262	10.537027	9.9539348
10.0297055	10.541135	9.9227503
10.114023	10.674141	9.759273
9.782636	10.666273	10.062775
10.00485271	10.53975	9.888985
9.970988	10.541179	9.888319
9.9452594	10.547682	9.9008704
9.9327739	10.548345	9.9135958
9.9225188	10.551171	9.9274557
9.9303092	10.530297	10.0119932
9.9746926	10.5344	10.0200456
10.0267873	10.53672	10.00535969
10.0435929	10.534772	9.9247571
10.0297055	10.541135	9.9227503
10.112215	10.68658	9.755548
10.0312184	10.550349	9.9292402
10.0260104	10.543858	9.90271
9.970988	10.541179	9.888319
9.9023127	10.548868	9.9439033
9.9035902	10.543375	9.956041
10.0297609	10.535897	9.99983473
10.04365	10.537766	9.9404677
9.793817	10.663826	10.0705359
9.786889	10.664089	10.0642361
9.783296	10.688237	10.0833822
10.121369	10.690141	9.748405
10.129744	10.67872	9.773296
9.775104	10.676261	10.0741495
9.778857	10.68571	10.0791758
9.787587	10.686329	10.0937296
9.791079	10.683503	10.0981499
9.99617085	10.545889	9.886657
9.933914	10.546005	9.9081511
9.914106	10.5367	9.9944439
9.9241212	10.533658	10.0104164
9.9828323	10.532496	10.0194192
10.035363	10.534891	9.9854427
10.0432324	10.547307	9.9417963
10.109797	10.671483	9.766689
10.13701	10.686401	9.76632
10.123437	10.693746	9.75169
10.0297055	10.541135	9.9227503
10.0243262	10.541893	9.912973
10.0197322	10.543933	9.898989
9.9736311	10.545426	9.887898
9.9621752	10.541718	9.89464
9.9383915	10.547969	9.907381
9.9383915	10.547969	9.907381
9.9265926	10.548193	9.9175208
9.9071395	10.554584	9.9404641
9.9078712	10.551466	9.9514035
9.899771	10.546293	9.9788794
9.9525252	10.534001	10.0206895
10.0149936	10.532931	10.0162623
10.035644	10.541478	9.9509496
10.0432811	10.543315	9.9357504
9.791681	10.687694	10.086914
10.125435	10.672972	9.770734
10.130214	10.692992	9.759466
9.800106	10.679151	10.0887379
9.799685	10.671111	10.0837088
9.782412	10.670097	10.0551786
9.784492	10.688988	10.0787084
9.957964	10.5484	9.9010301
9.9452594	10.547682	9.9008704
9.9023127	10.548868	9.9439033
9.9018732	10.550852	9.9659903
9.9214306	10.536341	10.00875691
9.9627903	10.537885	10.024717
10.0180084	10.538472	10.0154595
10.040339	10.539622	9.9826063
10.110318	10.678377	9.75819
10.130944	10.694181	9.750595
9.778658	10.67197	10.0631986
9.99617085	10.545889	9.886657
9.9869185	10.542013	9.880545
9.9805265	10.551378	9.888523
9.9666255	10.547514	9.896123
10.00526428	10.532113	10.0190923
10.0432811	10.543315	9.9357504
10.105415	10.67369	9.767399
10.107178	10.671227	9.77072
10.0429754	10.537714	9.9324905
10.00841918	10.543742	9.891671
9.99270178	10.550377	9.886561
9.9869185	10.542013	9.880545
10.0436799	10.535446	9.9761868
9.799893	10.68284	10.0864289
10.116439	10.692433	9.754985
10.10592	10.676425	9.76321
10.11655	10.671032	9.772123
9.801925	10.675958	10.0837427
9.799972	10.664616	10.0602173
9.792616	10.663746	10.0575195
9.790271	10.689359	10.0833627
10.00841918	10.543742	9.891671
9.99617085	10.545889	9.886657
9.9479971	10.552472	9.9037179
9.9479971	10.552472	9.9037179
9.9383915	10.547969	9.907381
9.9191116	10.555327	9.934748
9.916601	10.543885	9.9882175
9.918328	10.539111	10.00377526
9.9311216	10.540832	10.0139421
9.9627903	10.537885	10.024717
10.0267873	10.53672	10.00535969
10.0432324	10.547307	9.9417963
10.0197322	10.543933	9.898989
9.9383915	10.547969	9.907381
9.9327739	10.548345	9.9135958
9.9021379	10.552381	9.9808946
9.9023738	10.545215	9.9810662
9.9209854	10.551323	9.99190936
10.0213298	10.538496	10.0126411
10.0421382	10.540624	9.9809333
10.0364855	10.542951	9.9616007
10.035644	10.541478	9.9509496
9.796512	10.664233	10.0433901
10.109212	10.682445	9.757778
10.115991	10.67361	9.777938
10.1254	10.675774	9.773753
10.134126	10.691016	9.760993
10.0236883	10.548436	9.899541
9.9803872	10.555806	9.893067
9.9653955	10.550149	9.898481
9.9585664	10.551295	9.9007068
9.9018732	10.550852	9.9659903
9.9223595	10.549638	10.00722117
9.9278346	10.544313	10.0133845
9.9363911	10.547323	10.017222
9.9435268	10.541067	10.0179609
10.0274384	10.547422	10.00356727
10.0441259	10.549949	9.9357228
10.106843	10.670712	9.774893
10.131528	10.683131	9.773861
9.787631	10.66593	10.0526281
9.779151	10.675507	10.0611279
9.776917	10.680896	10.0733187
9.9805265	10.551378	9.888523
9.9327739	10.548345	9.9135958
9.9191116	10.555327	9.934748
9.9217264	10.559007	9.9334517
9.9023127	10.548868	9.9439033
9.9114381	10.555283	9.9497109
9.9201012	10.544688	9.99493971
9.9842311	10.539997	10.0213649
10.0084623	10.538017	10.019818
10.0385562	10.545734	9.9866315
10.0361833	10.546991	9.968877
10.0411626	10.551403	9.9473132
10.110224	10.670764	9.774613
10.106247	10.673215	9.786276
9.809079	10.674976	10.0682884
9.797712	10.689371	10.0795144
10.0271274	10.550301	9.9079235
10.0271274	10.550301	9.9079235
9.9743221	10.551103	9.892284
9.9653955	10.550149	9.898481
9.9071395	10.554584	9.9404641
9.9027626	10.564117	9.9671289
9.9795153	10.543678	10.0217206
10.0111809	10.543762	10.0198515
10.0311825	10.541382	9.99717604
10.0361833	10.546991	9.968877
10.0446692	10.553351	9.9394885
10.0432811	10.543315	9.9357504
10.101023	10.682081	9.764763
10.100953	10.671958	9.775649
9.785747	10.671143	10.0464736
9.782412	10.670097	10.0551786
10.029953	10.557363	9.9126964
10.0161925	10.556133	9.895898
10.00841918	10.543742	9.891671
9.9867006	10.550257	9.885288
9.9479971	10.552472	9.9037179
9.921797	10.557279	9.9339376
9.9120437	10.554915	9.9887976
9.9247747	10.552369	9.99840119
10.0160807	10.54664	10.0174779
10.0160807	10.54664	10.0174779
10.0330931	10.540824	9.99146705
10.041561	10.548217	9.9842195
10.0419989	10.548157	9.9794794
10.036529	10.54789	9.9495508
10.0312184	10.550349	9.9292402
10.0312184	10.550349	9.9292402
10.101971	10.679135	9.764771
9.804689	10.666417	10.0586448
10.0198468	10.560756	9.894007
10.0161925	10.556133	9.895898
9.9521612	10.55365	9.9030297
9.9191116	10.555327	9.934748
9.9244505	10.551223	10.000531339
10.0364855	10.542951	9.9616007
10.0989024	10.676045	9.770347
10.123974	10.684856	9.782538
10.135748	10.684608	9.769269
9.78711	10.668141	10.0469175
9.78381	10.675586	10.0493211
9.781105	10.686333	10.0688712
9.803965	10.680289	10.079597
10.0271274	10.550301	9.9079235
10.00878126	10.565937	9.890465
9.99270178	10.550377	9.886561
9.9867006	10.550257	9.885288
9.9479971	10.552472	9.9037179
9.9214904	10.547538	9.9218349
9.9233958	10.545287	10.0100483
9.99069339	10.533386	10.0210743
9.9743221	10.551103	9.892284
9.9717073	10.554744	9.895348
9.9521612	10.55365	9.9030297
9.916278	10.560999	9.9426482
9.9057351	10.559642	9.9793592
9.9084261	10.555371	9.9868008
10.0346468	10.54147	9.9886391
10.036529	10.54789	9.9495508
9.786751	10.690529	10.0747243
9.790245	10.690988	10.0777539
10.112012	10.694305	9.761946
10.0975946	10.670744	9.783259
10.103355	10.671359	9.784077
10.122096	10.681059	9.782077
10.037961	10.553997	9.931023
10.029953	10.557363	9.9126964
9.9071395	10.554584	9.9404641
9.9222341	10.549478	10.00437167
9.803857	10.671283	10.072874
10.128417	10.687083	9.77742
10.126095	10.694261	9.757771
10.00267865	10.547251	9.890181
9.9828483	10.557698	9.893198
9.9563564	10.558484	9.9038165
9.9120437	10.554915	9.9887976
9.9677053	10.537135	10.0245961
9.804689	10.666417	10.0586448
9.792147	10.666053	10.0434752
10.111227	10.690237	9.757771
9.783381	10.685179	10.056341
10.130646	10.690992	9.769352
10.124249	10.694752	9.771862
9.810206	10.673151	10.0636528
9.78381	10.675586	10.0493211
10.015412	10.562696	9.892114
9.9803872	10.555806	9.893067
9.9709532	10.559658	9.895027
9.9278445	10.556297	9.92892
9.916278	10.560999	9.9426482
9.9057351	10.559642	9.9793592
9.9219483	10.559383	9.9941928
10.0229757	10.546656	10.0101948
10.0441259	10.549949	9.9357228
10.119786	10.695778	9.763402
9.809507	10.664972	10.0472197
9.792545	10.668768	10.0354943
9.80951	10.678664	10.0699766
10.0287366	10.558253	9.9263443
10.032513	10.56343	9.9193806
10.0328496	10.564652	9.9159271
9.99101076	10.565442	9.889228
9.9030477	10.56171	9.9706638
9.9348893	10.554125	10.0179022
9.99874251	10.547087	10.0240284
10.0446692	10.553351	9.9394885
10.0435486	10.558915	9.9382933
10.0321977	10.559594	9.9340366
10.102012	10.685255	9.763896
9.792545	10.668768	10.0354943
9.806157	10.687411	10.0725247
9.9867006	10.550257	9.885288
9.9729397	10.561778	9.9008197
9.9327739	10.548345	9.9135958
9.9382146	10.556975	9.9233811
9.9536322	10.547235	10.022931
9.9750786	10.547442	10.0231681
9.99355967	10.563103	10.0268025
10.0229757	10.546656	10.0101948
10.0410217	10.554712	9.9881688
10.0410217	10.554712	9.9881688
10.0417538	10.557127	9.9486222
10.0990881	10.671702	9.791182
10.111063	10.675295	9.785394
10.115195	10.677926	9.784723
10.119339	10.682984	9.787031
10.119694	10.696728	9.769435
10.0236883	10.548436	9.899541
9.9628362	10.558824	9.9038249
9.9217264	10.559007	9.9334517
9.916278	10.560999	9.9426482
9.9027626	10.564117	9.9671289
9.9107211	10.562975	9.9879748
9.9266286	10.55684	10.0108236
10.036323	10.555115	9.9531416
10.0444592	10.557929	9.9432753
9.816331	10.669702	10.0476073
9.809507	10.664972	10.0472197
9.781497	10.679658	10.0561351
9.795637	10.692297	10.0739263
10.0198468	10.560756	9.894007
10.0125354	10.569231	9.889229
9.9303875	10.567502	9.9248214
9.9208074	10.567985	9.9394949
9.9278042	10.552105	10.013321
9.9637249	10.542548	10.0257146
10.0111809	10.543762	10.0198515
10.0355466	10.560317	9.957934
10.0417538	10.557127	9.9486222
10.029953	10.557363	9.9126964
10.029953	10.557363	9.9126964
9.9828483	10.557698	9.893198
9.9195248	10.564832	9.9433903
9.9676893	10.54367	10.0250587
10.0345422	10.550772	9.99400957
10.0351897	10.555171	9.9712578
10.033725	10.553814	9.9631596
9.785747	10.671143	10.0464736
9.783381	10.685179	10.056341
10.0840717	10.678105	9.786815
10.0898493	10.675091	9.782412
10.0936042	10.671299	9.786511
10.0968465	10.670852	9.788389
10.1069	10.67579	9.79134
10.116582	10.69486	9.760309
9.810206	10.673151	10.0636528
9.786977	10.691403	10.0583371
9.795637	10.692297	10.0739263
10.0000518963	10.567866	9.889464
9.9729397	10.561778	9.9008197
9.9055467	10.577175	9.9639816
9.99048541	10.547674	10.0237821
10.0917196	10.677519	9.776748
10.127064	10.690101	9.777839
9.800984	10.663447	10.0413238
9.787754	10.689199	10.0504532
9.80437	10.690604	10.0707594
9.806157	10.687411	10.0725247
10.0322117	10.565327	9.9247372
10.0367821	10.576472	9.9239886
10.0125354	10.569231	9.889229
9.9134617	10.579614	9.9801576
9.9266286	10.55684	10.0108236
10.0160807	10.54664	10.0174779
10.044452	10.565822	9.9440598
10.0998214	10.690541	9.767166
10.0959751	10.686233	9.769392
10.0930853	10.673055	9.782452
10.110587	10.680006	9.793657
9.787587	10.691307	10.0682473
9.975453	10.564884	9.9021718
9.9479971	10.552472	9.9037179
9.925791	10.564508	9.9278849
9.9055467	10.577175	9.9639816
9.9081199	10.564608	9.9778862
9.9398625	10.5524	10.0191837
10.0374181	10.563311	9.9770071
10.0448376	10.56587	9.948154
10.0321977	10.559594	9.9340366
10.10004	10.693259	9.769141
10.0904653	10.670253	9.799627
10.0154859	10.572081	9.889737
9.9208074	10.567985	9.9394949
9.9780538	10.556349	10.0250955
10.0345422	10.550772	9.99400957
10.034353	10.555662	9.9588139
10.0912058	10.670556	9.792426
9.79261	10.672732	10.0320532
9.788628	10.676002	10.0386907
9.787851	10.680014	10.0405402
9.787754	10.689199	10.0504532
9.81334	10.678712	10.064862
9.99851896	10.575862	9.889207
9.9418585	10.569742	9.919498
9.9337899	10.569949	9.9220461
9.9492506	10.553466	10.0219885
9.9536322	10.547235	10.022931
10.0337426	10.558373	9.99797325
10.0406021	10.555806	9.97916
10.0911523	10.680728	9.775091
10.0864617	10.669778	9.801872
10.116102	10.683495	9.791469
10.122866	10.689507	9.784152
10.108506	10.698014	9.771325
9.792545	10.668768	10.0354943
9.792645	10.694089	10.0649127
10.0360751	10.574165	9.9202844
10.00560959	10.572265	9.887762
9.99101076	10.565442	9.889228
9.9528674	10.572947	9.9132345
9.9337899	10.569949	9.9220461
9.9303875	10.567502	9.9248214
9.916223	10.568792	9.99358841
9.9257368	10.556931	9.99778083
9.9285435	10.558892	10.00349382
10.0427047	10.55547	9.9849884
10.0410676	10.571339	9.9415915
10.0333462	10.567111	9.9374813
10.100861	10.672916	9.793393
10.125704	10.692776	9.77633
9.813061	10.682752	10.0665682
10.0154859	10.572081	9.889737
9.9857944	10.567997	9.890288
9.9629081	10.571834	9.908615
9.9528674	10.572947	9.9132345
9.9418585	10.569742	9.919498
9.932427	10.560069	10.01823
10.0111809	10.543762	10.0198515
10.0358636	10.564935	9.9735576
10.0350967	10.562776	9.9656219
10.0796489	10.682461	9.790748
9.790217	10.693399	10.0590385
9.792645	10.694089	10.0649127
9.81334	10.678712	10.064862
9.819391	10.677507	10.0543973
10.0328496	10.564652	9.9159271
10.0328496	10.564652	9.9159271
10.0198468	10.560756	9.894007
9.9793544	10.569702	9.9020581
9.9098241	10.568692	9.9778742
9.9107211	10.562975	9.9879748
9.9548514	10.556492	10.0243633
9.9852886	10.561522	10.0253953
10.0376839	10.567582	9.9587963
10.0448376	10.56587	9.948154
10.0397789	10.565662	9.937738
10.0913132	10.689463	9.775497
10.0920701	10.672201	9.80794
10.122094	10.6929	9.782487
10.11349	10.697838	9.770454
9.9844107	10.569327	9.897721
9.9729397	10.561778	9.9008197
9.9701496	10.569263	9.9051958
9.9167347	10.581977	9.9527875
10.00129901	10.561311	10.0253426
10.0410217	10.554712	9.9881688
9.819391	10.677507	10.0543973
9.792942	10.675718	10.0307378
10.0864816	10.687838	9.780648
10.0879347	10.670393	9.808047
10.101969	10.675199	9.797761
10.0139469	10.587391	9.893566
9.99027543	10.573115	9.889805
9.9349775	10.579961	9.9220833
9.9303875	10.567502	9.9248214
9.9167347	10.581977	9.9527875
9.909773	10.576748	9.972487
9.9174733	10.574193	9.9898183
10.0293346	10.552608	10.00222196
10.0379945	10.563702	9.9551328
10.0441758	10.56672	9.9513572
9.798755	10.665642	10.0319222
10.0990992	10.676345	9.805693
10.0118479	10.575598	9.88933
10.0067597	10.575191	9.888284
10.0000518963	10.567866	9.889464
9.9844107	10.569327	9.897721
9.9629081	10.571834	9.908615
9.9074844	10.587642	9.9632067
9.9310178	10.564907	10.0055565
9.9329607	10.570496	10.00985032
10.0240715	10.55488	10.00743954
9.812957	10.666904	10.0472863
9.812534	10.663199	10.0271206
9.806037	10.663103	10.0320432
9.799522	10.695179	10.0656704
9.804423	10.694608	10.0652321
10.0852665	10.671367	9.796535
10.121386	10.696189	9.77493
10.0154859	10.572081	9.889737
9.9844107	10.569327	9.897721
9.9270469	10.564696	9.999615568
10.0186456	10.558896	10.014804
10.0414815	10.559977	9.9904862
10.0358636	10.564935	9.9735576
9.819479	10.664736	10.0274667
9.797827	10.672764	10.0244396
9.792108	10.694273	10.0489881
9.812262	10.685954	10.0671558
10.0803938	10.670281	9.807257
10.0317498	10.570341	9.9367923
10.0368508	10.580309	9.9202318
9.9251328	10.57991	9.9313799
9.9167347	10.581977	9.9527875
9.9435639	10.562065	10.0222647
10.0324663	10.564616	10.00206987
10.0393853	10.570397	9.9579209
9.819479	10.664736	10.0274667
9.792539	10.688285	10.0366835
9.787868	10.683902	10.0427534
10.0815826	10.675559	9.793044
10.118602	10.687387	9.790739
10.113734	10.699331	9.7807
10.103076	10.69559	9.769652
10.032034	10.57363	9.9305591
10.0386688	10.583283	9.9249208
10.0161422	10.591746	9.896558
9.9701496	10.569263	9.9051958
9.9089455	10.583818	9.9672115
9.9435639	10.562065	10.0222647
9.9717931	10.557402	10.0278959
10.0304001	10.560329	10.00299162
10.038153	10.563566	9.99487504
9.822115	10.667758	10.0339873
9.822115	10.667758	10.0339873
9.811263	10.668033	10.0158316
9.797827	10.672764	10.0244396
9.818846	10.68294	10.0589371
10.0916026	10.694592	9.778354
10.0789746	10.674249	9.799205
10.0830417	10.669586	9.810002
10.109209	10.682325	9.799866
9.81693	10.666353	10.0165018
9.790217	10.693399	10.0590385
10.0139469	10.587391	9.893566
9.9811696	10.568045	9.9002309
9.9499005	10.575235	9.9143068
9.911607	10.587223	9.9744506
9.964538	10.555814	10.0273554
9.9655145	10.563682	10.0285957
10.0457566	10.571103	9.9503823
10.0982573	10.700553	9.781318
9.82507	10.674836	10.0398999
9.813782	10.695614	10.0591367
9.818846	10.68294	10.0589371
10.0368508	10.580309	9.9202318
10.0368508	10.580309	9.9202318
10.0161422	10.591746	9.896558
9.9808159	10.574584	9.9041012
10.0132811	10.553071	10.0200108
10.0349817	10.574916	9.9412989
10.113777	10.685578	9.797089
10.118333	10.691199	9.790739
9.819479	10.664736	10.0274667
9.794025	10.693103	10.041161
10.0368508	10.580309	9.9202318
10.00875611	10.587187	9.893516
9.9848606	10.575195	9.9031143
9.9811568	10.579363	9.9072824
9.9700426	10.580309	9.9089319
9.9685444	10.574401	9.9067052
9.9607001	10.58272	9.9122788
9.9524019	10.581446	9.9145052
9.9210972	10.571031	9.93092
9.9674498	10.564608	10.0290272
9.9852886	10.561522	10.0253953
10.0830253	10.685032	9.785373
10.0338663	10.579379	9.9336414
10.0401558	10.589518	9.9310873
10.0386688	10.583283	9.9249208
9.9256062	10.58161	9.9355559
9.9167347	10.581977	9.9527875
9.9064493	10.583351	9.9611005
9.911607	10.587223	9.9744506
9.9147028	10.576935	9.9837772
9.9209324	10.574281	9.9976471
9.9311571	10.57462	10.00477806
10.0361546	10.564516	9.99723712
10.0433067	10.572053	9.99377324
9.793962	10.695926	10.0507079
9.797156	10.697439	10.0537562
10.103652	10.70096	9.781437
10.0368508	10.580309	9.9202318
10.0161422	10.591746	9.896558
9.9863066	10.581726	9.9062529
9.9396757	10.580939	9.9200194
9.9147028	10.576935	9.9837772
9.9321332	10.570796	10.00675411
9.9346422	10.570472	10.0203222
10.00993735	10.553367	10.0218851
10.0350967	10.562776	9.9656219
10.0457566	10.571103	9.9503823
9.804423	10.694608	10.0652321
9.819391	10.677507	10.0543973
10.0939471	10.698249	9.780092
9.9999888223	10.581155	9.89176
9.9167347	10.581977	9.9527875
9.9073467	10.591095	9.9612642
9.908694	10.599762	9.9702331
10.0372548	10.575486	9.9679081
9.806658	10.67191	10.0141425
10.0844828	10.670916	9.815772
10.092314	10.674393	9.812723
10.107917	10.684732	9.805474
10.0448424	10.580249	9.9478314
10.0343027	10.579067	9.9429587
10.0139469	10.587391	9.893566
9.9396757	10.580939	9.9200194
9.9220314	10.579822	9.9498685
9.9569947	10.571722	10.026725
9.82507	10.674836	10.0398999
9.799068	10.68183	10.020616
9.79689	10.694085	10.0349657
10.085682	10.693519	9.784126
10.0732585	10.677067	9.80565
10.0371566	10.5809	9.9289823
10.0386688	10.583283	9.9249208
9.9086333	10.586145	9.9570837
9.9182924	10.581698	9.9912886
10.0211474	10.56252	10.0109665
9.829	10.671379	10.0272643
9.825846	10.668006	10.0250891
10.100558	10.67906	9.8083
10.110389	10.687714	9.80413
10.113397	10.689319	9.799613
10.108871	10.700417	9.780827
9.80852	10.69886	10.056886
9.816484	10.692309	10.0599898
10.0161422	10.591746	9.896558
10.0126603	10.598265	9.89877
10.00875611	10.587187	9.893516
9.9768522	10.581027	9.9090685
9.9649025	10.589878	9.9160337
9.9607001	10.58272	9.9122788
9.9371416	10.591059	9.9266964
9.9329607	10.570496	10.00985032
9.9438905	10.572512	10.025254
9.9724658	10.56488	10.0284344
10.0147441	10.564764	10.0199745
10.0428652	10.566037	9.9854371
10.0763515	10.670976	9.812245
10.114074	10.692636	9.798226
10.114911	10.695335	9.793491
9.794643	10.683251	10.0287242
10.0352763	10.582692	9.9429907
10.0386688	10.583283	9.9249208
9.9378178	10.576361	9.9194186
9.9323424	10.596241	9.9366553
9.9119427	10.594409	9.9562358
9.9197403	10.577858	9.99365428
10.00129901	10.561311	10.0253426
10.045036	10.57551	9.9558698
10.0744042	10.674034	9.808396
10.080088	10.670049	9.816783
10.10336	10.703451	9.792152
10.0474492	10.579838	9.9529763
10.039828	10.591071	9.9352478
10.0161422	10.591746	9.896558
10.00875611	10.587187	9.893516
9.9863066	10.581726	9.9062529
9.9256062	10.58161	9.9355559
9.9377959	10.567686	10.0220204
9.9828626	10.569355	10.0276524
10.00587746	10.564093	10.0244631
10.0411666	10.57373	9.9836826
9.796636	10.697219	10.0457809
9.796636	10.697219	10.0457809
9.80852	10.69886	10.056886
10.107929	10.691383	9.810016
10.0424548	10.586664	9.9483073
10.0354492	10.587486	9.9394262
10.0161422	10.591746	9.896558
10.0102439	10.594959	9.89684
9.99422833	10.585311	9.89653
9.9802818	10.585211	9.9136992
9.9220641	10.588664	9.9518378
9.9181731	10.589718	9.9878567
9.9344438	10.579894	10.00947667
10.0479786	10.582592	9.9576231
9.82551	10.667187	10.0207374
9.81693	10.666353	10.0165018
9.797156	10.697439	10.0537562
10.0799838	10.691179	9.790447
10.0791347	10.669886	9.812823
10.113614	10.698161	9.790089
9.806658	10.67191	10.0141425
9.819191	10.687271	10.0587906
10.0165422	10.570197	10.0179146
10.0226555	10.568093	10.00980362
10.0402731	10.578712	9.9637253
10.0402731	10.578712	9.9637253
10.0401558	10.589518	9.9310873
10.0166088	10.611578	9.9114349
10.0145793	10.601319	9.9014744
10.00312017	10.589558	9.895852
9.9869445	10.590057	9.9081128
9.9480797	10.590788	9.9212673
9.9107331	10.594349	9.9733373
9.9359547	10.579015	10.0134787
10.105665	10.70292	9.797875
9.820329	10.665706	10.0192116
9.818846	10.68294	10.0589371
9.82422	10.678401	10.0461869
10.0426113	10.598983	9.9343994
9.9711452	10.585522	9.9130477
9.9371416	10.591059	9.9266964
9.9299511	10.590065	9.9338753
9.9119427	10.594409	9.9562358
9.909686	10.597183	9.9585867
9.9107331	10.594349	9.9733373
10.0448424	10.580249	9.9478314
10.0745155	10.680325	9.800033
10.0905795	10.677175	9.818784
10.103062	10.685706	9.81338
10.109981	10.694784	9.806283
9.811263	10.668033	10.0158316
9.79689	10.694085	10.0349657
9.802334	10.70005	10.0502624
9.9371416	10.591059	9.9266964
10.0128264	10.56187	10.0213721
10.0381183	10.573422	9.9782506
10.0479786	10.582592	9.9576231
10.0759822	10.693435	9.797077
10.0733914	10.685195	9.800065
9.798321	10.698229	10.0404105
9.823649	10.683071	10.0511035
10.0426113	10.598983	9.9343994
10.0166088	10.611578	9.9114349
10.00875611	10.587187	9.893516
9.99867185	10.58854	9.896882
9.9778059	10.590704	9.918712
9.9573835	10.590113	9.9175778
9.9137259	10.597618	9.9781824
9.9194777	10.595023	9.99578761
9.9239735	10.5849	10.00374053
9.99054888	10.571798	10.0273358
10.0411666	10.57373	9.9836826
10.0403706	10.586672	9.9697273
10.0768066	10.68694	9.794308
10.0706349	10.691447	9.805144
10.107088	10.701638	9.801734
10.0943767	10.702792	9.787858
10.0426113	10.598983	9.9343994
10.0145793	10.601319	9.9014744
10.00588544	10.595251	9.897489
9.9188761	10.584788	9.9930419
9.9389915	10.575502	10.0241122
9.9513169	10.576664	10.0265985
9.9521009	10.568393	10.0249969
9.9569947	10.571722	10.026725
10.0438975	10.566684	9.9890615
10.0404452	10.58064	9.9830099
10.0869695	10.699786	9.788089
10.0801343	10.673531	9.826588
10.0889168	10.67288	9.81473
10.0955188	10.680848	9.817427
10.039828	10.591071	9.9352478
10.0166088	10.611578	9.9114349
10.000594013	10.604971	9.9029104
9.9665317	10.584453	9.9121136
9.9480797	10.590788	9.9212673
9.9119427	10.594409	9.9562358
9.908694	10.599762	9.9702331
9.812659	10.676033	10.00363514
9.806517	10.685555	10.00785231
9.800831	10.687383	10.0182428
9.8056	10.701343	10.0448831
10.0832417	10.69698	9.78945
9.817453	10.669922	10.00559602
9.9379488	10.585941	10.0152216
9.9372023	10.579478	10.022022
10.0294073	10.57092	10.00560999
10.0780217	10.671878	9.825007
10.104084	10.696624	9.817261
10.110292	10.698341	9.801519
9.79689	10.694085	10.0349657
9.82243	10.69492	10.0510089
9.99056684	10.602281	9.9081184
9.931003	10.594193	9.9444578
9.9241052	10.590401	10.00543913
10.0420009	10.574612	9.9957948
10.0416883	10.588237	9.9675963
10.0483287	10.586528	9.952429
10.0814669	10.700744	9.795755
10.0657586	10.677239	9.81878
10.0749155	10.670764	9.822719
10.0911874	10.704157	9.793381
9.81198	10.701251	10.04905
9.824715	10.690624	10.0508105
10.0368157	10.591083	9.9433308
10.0145793	10.601319	9.9014744
10.00970461	10.604748	9.9012876
10.00588544	10.595251	9.897489
9.9858119	10.596728	9.9126453
9.908694	10.599762	9.9702331
9.9102445	10.604999	9.9746854
9.9179906	10.600959	9.9832778
9.9450083	10.579215	10.0275621
9.9654291	10.569842	10.0293905
10.000293015	10.577574	10.0265917
10.0378376	10.573886	9.99831097
10.0372548	10.575486	9.9679081
10.0498125	10.587634	9.95653
10.0884062	10.681594	9.8271
9.831714	10.670057	10.019806
10.044573	10.606073	9.9378098
10.0426113	10.598983	9.9343994
10.0145529	10.605199	9.904595
10.0145793	10.601319	9.9014744
9.99056684	10.602281	9.9081184
9.988285	10.590476	9.9058788
9.99054888	10.571798	10.0273358
10.0809894	10.67567	9.828921
9.83345	10.672413	10.0227945
9.8056	10.701343	10.0448831
9.828246	10.690509	10.0466005
9.831165	10.688461	10.0418991
10.0145793	10.601319	9.9014744
9.9521883	10.603047	9.9256988
9.931003	10.594193	9.9444578
9.9188737	10.613195	9.99431855
9.9193922	10.600804	9.99507743
10.00883675	10.582672	10.0246128
10.0185006	10.581023	10.0156703
10.0714054	10.672385	9.818198
10.0633019	10.673311	9.829592
10.0717303	10.671243	9.822306
10.0981272	10.704656	9.793964
9.798321	10.698229	10.0404105
9.828852	10.681602	10.0408332
9.828852	10.681602	10.0408332
10.0110256	10.607802	9.9033215
10.00467865	10.601606	9.9004078
9.9649025	10.589878	9.9160337
9.9323424	10.596241	9.9366553
9.9090409	10.600987	9.9615576
9.9123008	10.604417	9.9769556
9.9262841	10.596333	10.0094595
9.9573919	10.582297	10.028416
9.9710981	10.587111	10.03266
10.0491873	10.587107	9.9595332
10.0692197	10.674672	9.816933
10.0731646	10.671794	9.828907
10.0915068	10.685782	9.828004
10.096827	10.688409	9.824533
10.0432516	10.602049	9.9410613
10.0166088	10.611578	9.9114349
9.9088489	10.603822	9.9667313
10.0396652	10.583554	9.9773572
10.0491873	10.587107	9.9595332
10.0516436	10.592552	9.9584454
9.831714	10.670057	10.019806
9.834117	10.669734	10.0122795
9.80458	10.693834	10.0165014
10.0693582	10.681491	9.809115
10.0750756	10.674157	9.832691
9.79689	10.694085	10.0349657
9.80458	10.693834	10.0165014
10.0426113	10.598983	9.9343994
9.9102445	10.604999	9.9746854
9.9159108	10.609195	9.9795548
9.9212134	10.596852	10.00350859
10.00703275	10.572752	10.0247126
