# .PCD v0.7 - Point Cloud Data file format
VERSION 0.7
FIELDS x y z
SIZE 4 4 4
TYPE F F F
COUNT 1 1 1
WIDTH 677
HEIGHT 1
VIEWPOINT 0 0 0 1 0 0 0
POINTS 677
DATA ascii
0.35421476 0.043599296 0.7782501
0.34371591 0.058389146 0.77847064
0.35024098 0.052539058 0.77618694
0.34268194 0.067835838 0.77838767
0.34941357 0.067375988 0.77488893
0.34326676 0.078878053 0.77833331
0.35017285 0.081760958 0.77572638
0.35393703 0.092107952 0.77806896
0.32958168 0.04380282 0.79350001
0.33922407 0.042248558 0.79107499
0.35200688 0.037989412 0.78760093
0.36144122 0.03254661 0.7917369
0.32671216 0.054307576 0.7904737
0.33756807 0.052322343 0.78474122
0.34614384 0.049126804 0.7811594
0.32356244 0.067490548 0.79026157
0.33530888 0.067348607 0.78304708
0.3238298 0.081608661 0.79046547
0.33701456 0.082947776 0.78465652
0.34787703 0.088211946 0.78111446
0.32745084 0.092136145 0.79255265
0.33910313 0.095785126 0.78949207
0.35087278 0.098222859 0.7842468
0.34413117 0.10511445 0.79400003
0.35381973 0.1081118 0.79098374
0.36132193 0.11155079 0.79183334
0.34110326 0.02910305 0.80748385
0.35275647 0.027016943 0.8022154
0.36364272 0.025991663 0.80231887
0.31468764 0.044436868 0.80766672
0.32433823 0.040737543 0.8046248
0.3370358 0.035360996 0.800044
0.35084957 0.03158994 0.79626679
0.3606647 0.030394858 0.79500002
0.31101081 0.054601442 0.8045029
0.32078981 0.051295001 0.79961377
0.29775789 0.07125517 0.80876321
0.30766049 0.067313179 0.80281144
0.31637818 0.068048693 0.79622823
0.28226367 0.085867718 0.80833787
0.29268157 0.083012722 0.80663139
0.30751899 0.0821293 0.8019371
0.31770331 0.085431188 0.79715282
0.28112924 0.097094335 0.80685323
0.29261273 0.097609743 0.804389
0.30770785 0.097247355 0.80209666
0.32163292 0.097614445 0.79848194
0.33515143 0.10186567 0.79773253
0.28235471 0.10625813 0.80840898
0.29325131 0.10949475 0.80735695
0.3080669 0.11078981 0.80520463
0.32232973 0.11105424 0.80422574
0.33792716 0.11188342 0.80469537
0.35137936 0.11465468 0.80164891
0.3624312 0.11743817 0.79867649
0.3395623 0.12038573 0.80900002
0.35791335 0.12064686 0.80811119
0.36488026 0.12169072 0.80590326
0.33882439 0.027670272 0.81740004
0.34976694 0.024935512 0.81579077
0.36795738 0.022042427 0.81277794
0.37606311 0.01972693 0.82200003
0.31042105 0.042422246 0.81893671
0.32174525 0.035565082 0.81592649
0.33223942 0.030988909 0.81326926
0.28368929 0.05912054 0.82333332
0.29460007 0.055068418 0.82024759
0.30551907 0.051002134 0.81493777
0.28100023 0.069115728 0.81882614
0.29183668 0.066497989 0.81275064
0.300524 0.060675949 0.81000006
0.23330376 0.08844807 0.82260883
0.24844201 0.086629674 0.81996363
0.26308882 0.083590001 0.81784469
0.27651605 0.081516191 0.81404293
0.28918144 0.076066472 0.81020838
0.20362885 0.10251309 0.82322657
0.21813387 0.097976215 0.82121575
0.23248942 0.097642496 0.81938857
0.24767752 0.097400181 0.81730574
0.26259732 0.097352013 0.81499702
0.27444357 0.097584702 0.81254345
0.19363302 0.10963578 0.82381809
0.20332165 0.11115931 0.82256567
0.21751165 0.11262554 0.8215006
0.23238802 0.11260601 0.82017732
0.24765523 0.11245206 0.81806439
0.26246035 0.11216711 0.81548196
0.27705535 0.11273312 0.81470209
0.29051146 0.1162492 0.81227607
0.30575255 0.11781966 0.81068164
0.32245374 0.1188057 0.81063908
0.33296296 0.11935204 0.81040007
0.34973577 0.11964775 0.81
0.221379 0.12096396 0.82400006
0.23526224 0.12196875 0.82344198
0.24776958 0.12220351 0.82209361
0.26246032 0.123369 0.82168913
0.27704453 0.12348047 0.82076842
0.29362527 0.12301344 0.81824511
0.30727589 0.12412442 0.81707901
0.32259893 0.12430532 0.81724381
0.33752224 0.1245131 0.81615883
0.35250798 0.12492081 0.81584454
0.36666128 0.12676927 0.81705904
0.3769781 0.12983483 0.82400006
0.32902753 0.029891588 0.82933336
0.33691278 0.027673597 0.83125645
0.35062054 0.024091098 0.83031583
0.29581138 0.044107959 0.83588886
0.30671713 0.040135298 0.83085728
0.32067561 0.033626344 0.83077598
0.2824153 0.054887678 0.83164734
0.29063869 0.049436275 0.82903516
0.30040067 0.045117404 0.82550001
0.26744419 0.074352361 0.83600003
0.27619663 0.067608647 0.83032614
0.19049869 0.088421941 0.83661723
0.20305102 0.087385044 0.83279407
0.2174637 0.086042687 0.83055228
0.2323544 0.084178008 0.83083081
0.24734162 0.082020104 0.83155769
0.26108846 0.077190772 0.83052391
0.27177075 0.07579942 0.82500005
0.17501125 0.09979441 0.83510375
0.18754892 0.097679891 0.83049309
0.20186456 0.095695771 0.82699072
0.21222761 0.093365312 0.82507342
0.13999367 0.11933871 0.83900005
0.16035683 0.11502343 0.83740771
0.17235909 0.1123091 0.83042991
0.18666175 0.11269387 0.82600844
0.19881782 0.11722138 0.82538027
0.058527671 0.13091236 0.83900005
0.08285331 0.13357614 0.83900005
0.098322995 0.13397616 0.83900023
0.11533846 0.13207482 0.83880049
0.1279946 0.12872896 0.83736771
0.14220516 0.12788427 0.83715194
0.15739091 0.12741888 0.83617771
0.17226653 0.12710454 0.83212912
0.18744576 0.12720805 0.83069807
0.20241447 0.12719369 0.83058226
0.21730478 0.12777561 0.83029884
0.23183301 0.12841877 0.82967001
0.24763158 0.12966618 0.83058178
0.26260793 0.13072395 0.83035535
0.27694169 0.13068876 0.83045053
0.29215091 0.12942564 0.83148396
0.30790403 0.13164042 0.83122092
0.3229107 0.13189548 0.83133757
0.33751246 0.131689 0.82916921
0.35220748 0.13239937 0.82949066
0.36723447 0.13249931 0.83093125
0.37986532 0.13330941 0.83400005
0.084089078 0.14113836 0.83893657
0.099771015 0.13886352 0.83829772
0.11292484 0.13941021 0.83875763
0.12824051 0.13907878 0.83849037
0.14142337 0.13868593 0.83780307
0.15887265 0.13668661 0.83835739
0.17187363 0.13643552 0.83818185
0.18779236 0.13653496 0.83831578
0.1993321 0.13615774 0.83855563
0.22026139 0.13652906 0.8380937
0.2309982 0.13676499 0.83797842
0.24642767 0.13594589 0.83864295
0.26208234 0.13584705 0.83794743
0.27199373 0.1355162 0.83679998
0.33755231 0.13586806 0.83699995
0.35223013 0.13554859 0.83700001
0.36456752 0.13579153 0.83850002
0.33765349 0.027863253 0.84493339
0.34957784 0.024725812 0.84861541
0.36139044 0.022521509 0.84233332
0.29480588 0.042762548 0.84587175
0.30704018 0.038480025 0.84570014
0.32175022 0.033404384 0.84640622
0.28257221 0.053622369 0.84566009
0.28683689 0.04630015 0.84611762
0.26673028 0.073738381 0.84442109
0.27533972 0.069314048 0.84558553
0.17713866 0.089397222 0.84989476
0.18697423 0.087347813 0.84575015
0.20210093 0.084419444 0.84602052
0.21754271 0.082123123 0.84608698
0.23207834 0.081021085 0.84587765
0.24701571 0.079550683 0.84570009
0.2587404 0.077060595 0.84699994
0.029845364 0.10324048 0.85400003
0.038472686 0.10232516 0.85305941
0.053175151 0.10101239 0.85219604
0.067866899 0.10056587 0.85235256
0.083565444 0.099539749 0.85287118
0.097444721 0.099429592 0.8520202
0.11270901 0.10011335 0.85197538
0.12693036 0.10112374 0.85156858
0.14351119 0.10028171 0.85067713
0.15773392 0.098985933 0.84805876
0.17009136 0.095185883 0.84445578
0.18188614 0.090953268 0.84125012
-0.015028128 0.11960237 0.85400003
-0.0057286201 0.11823346 0.85369104
0.0091216518 0.1149362 0.85212022
0.02288649 0.11324604 0.84970248
0.037609972 0.112513 0.84994531
0.052446891 0.11244763 0.8492223
0.067385778 0.11234371 0.84783167
0.082540914 0.11218829 0.84763718
0.097758427 0.11232921 0.84708959
0.11263604 0.11247383 0.8462733
0.12734868 0.11263508 0.84464556
0.14260609 0.11268131 0.84465194
0.15564828 0.11029385 0.84245658
-0.01710429 0.12427691 0.85350013
-0.006584988 0.12691437 0.85150832
0.0077932733 0.12738058 0.84865892
0.022628203 0.12736665 0.84655446
0.037446417 0.12746322 0.84471345
0.052299198 0.12726265 0.84280294
0.067659274 0.12722427 0.84318089
0.082447357 0.12693864 0.84254378
0.09722355 0.12699692 0.84278065
0.11155977 0.12581034 0.84168369
0.12516847 0.12220459 0.84089279
0.14520003 0.12100536 0.84013647
0.29373786 0.13410591 0.84169561
0.30185392 0.1345413 0.84216672
-0.0039031634 0.13830701 0.85222411
0.0081627248 0.14195673 0.85019135
0.022771865 0.14240368 0.84843755
0.037393082 0.14260226 0.84674501
0.052577019 0.14219201 0.84342408
0.067647152 0.14238061 0.84199208
0.081860997 0.14242847 0.84092188
0.09582185 0.14417344 0.84084278
0.11197376 0.14420433 0.84025037
0.12697111 0.14489138 0.84102124
0.14355309 0.14596371 0.84260356
0.15713368 0.14377484 0.84288913
0.17271316 0.14382336 0.84582973
0.18719706 0.14351334 0.84559321
0.20280619 0.14315364 0.84630919
0.21715921 0.14327042 0.84571582
0.23263851 0.1436156 0.84541923
0.24726613 0.14155054 0.84694612
0.26193669 0.14073068 0.84649992
0.27834553 0.13887796 0.84711283
0.29154354 0.13817713 0.8486886
0.30771783 0.13751274 0.84776479
0.32304767 0.13809299 0.84610468
0.33727542 0.13898638 0.84663856
0.35192451 0.13930276 0.84590173
0.36684448 0.13859899 0.84655774
0.38264877 0.13746722 0.84684622
0.39024553 0.14000748 0.85300004
0.012292815 0.15081997 0.8536154
0.023792185 0.15364656 0.85198998
0.03806686 0.15458792 0.8515386
0.052585952 0.15541723 0.84989119
0.067603722 0.15656117 0.84654778
0.082580082 0.15727536 0.84525943
0.09751904 0.15710424 0.84468758
0.1124457 0.15724877 0.84522748
0.12737483 0.15710165 0.84713632
0.14176346 0.15637781 0.84920543
0.1571078 0.15378806 0.85041368
0.17167011 0.15282437 0.85218942
0.18663418 0.15109605 0.85297573
0.20139194 0.15064713 0.85363638
0.21237764 0.15045622 0.85400003
0.22905506 0.15051408 0.85336363
0.083976991 0.16550064 0.84963644
0.096235298 0.16557147 0.84999996
0.10946313 0.16563641 0.85033339
0.12304298 0.16502829 0.85200006
0.34090379 0.027744712 0.85649997
0.35008204 0.025756532 0.86300009
0.29567328 0.042862434 0.86075008
0.30795032 0.038564872 0.85950005
0.32206166 0.034379162 0.86123085
0.28385684 0.053812489 0.85600007
0.28821605 0.047557458 0.86100012
0.26823992 0.074048273 0.85700005
0.27766317 0.070123911 0.86180007
-0.12902868 0.088442408 0.86882353
0.041367661 0.089305498 0.86657906
0.053676996 0.088322066 0.86424589
0.067848064 0.086577296 0.86222315
0.082833208 0.085873917 0.86203134
0.0971011 0.084900357 0.86103249
0.11237917 0.085377268 0.86238563
0.12742214 0.086394474 0.86250001
0.14185914 0.087654538 0.86350608
0.15617692 0.088884935 0.86490011
0.17252642 0.089435473 0.8630771
0.18746427 0.087083936 0.86138463
0.20252185 0.084441438 0.86126328
0.21575542 0.082494251 0.86050004
0.23110355 0.081150837 0.86331254
0.24765261 0.079519629 0.86010534
0.26226634 0.077405736 0.86306667
-0.13515396 0.091258705 0.86900002
-0.12624827 0.096749589 0.86760461
-0.11392853 0.10003199 0.86799979
-0.096736684 0.10406585 0.86900014
-0.084260233 0.10457813 0.86900002
-0.066725664 0.10383254 0.86888468
-0.051197641 0.10228093 0.86734128
-0.037845865 0.10251324 0.86591059
-0.022621524 0.10161497 0.86541629
-0.0070433351 0.10105442 0.86416298
0.008095827 0.099458605 0.86072844
0.022933204 0.097884491 0.85996372
0.037020087 0.095100731 0.85931629
0.052007273 0.093805924 0.85760349
0.067353688 0.093264751 0.85661882
0.080577753 0.09337198 0.85590136
0.097295493 0.092116177 0.85647202
0.11206059 0.09275984 0.85709256
0.127969 0.093527094 0.85638374
0.14086419 0.093546048 0.85690331
0.1573981 0.091605157 0.85809094
0.16786078 0.090533189 0.8573333
-0.13696605 0.1175819 0.86778963
-0.12697583 0.11367178 0.86782509
-0.11263189 0.11249667 0.8670941
-0.098086782 0.1125741 0.86807132
-0.081582457 0.11273257 0.86765456
-0.067270935 0.11242902 0.86618692
-0.052605592 0.11257885 0.86388081
-0.037307005 0.11258613 0.86116385
-0.022145119 0.11244921 0.85964674
-0.0074615246 0.11104103 0.85774195
0.0058467188 0.10851053 0.856121
0.021111941 0.10590148 0.85602641
-0.15186802 0.13367748 0.86821425
-0.14133801 0.12941904 0.86810678
-0.1274309 0.1272956 0.86498463
-0.11244757 0.12723249 0.8655135
-0.097585097 0.12622347 0.86729443
-0.082300931 0.12704721 0.86754787
-0.067516804 0.12727496 0.86543369
-0.052442499 0.12742338 0.86240232
-0.037237432 0.12743421 0.85949939
-0.02282979 0.12747179 0.85681808
-0.013378439 0.13208346 0.8554737
-0.15295571 0.13824771 0.86778128
-0.14254755 0.13828254 0.86656249
-0.12807697 0.13845548 0.86607891
-0.11605831 0.13732283 0.86764282
-0.081882022 0.13502254 0.86900002
-0.066035762 0.13702323 0.8686921
-0.0520509 0.13925652 0.86577451
-0.03685046 0.14077722 0.86289763
-0.02192368 0.14134985 0.86105353
-0.0083912164 0.14399114 0.85780931
0.0032495679 0.1488553 0.85554558
0.23852387 0.14957917 0.85540009
0.24954352 0.14826812 0.85694301
0.26164183 0.14774668 0.85923535
0.27735502 0.14644425 0.86106753
0.29255912 0.1449375 0.86167085
0.30670917 0.14317507 0.86264074
0.32306609 0.14397568 0.86139643
0.3372272 0.14402628 0.86217082
0.35332027 0.14470401 0.86112827
0.36749172 0.14453651 0.86129171
0.38512439 0.14172132 0.86239278
-0.015186504 0.15015221 0.86300004
-0.0047522089 0.15112047 0.86056
0.007602924 0.15287019 0.85696924
0.02105201 0.15702577 0.85535985
0.035028089 0.15905693 0.85500002
0.14718719 0.1612411 0.85500002
0.15774731 0.15892169 0.85619044
0.17328016 0.15735042 0.85680354
0.18726954 0.15588208 0.85744619
0.20218454 0.15444574 0.85816664
0.2178915 0.15375207 0.85876101
0.23275618 0.15406489 0.85923475
0.24688131 0.15297085 0.86183077
0.26200345 0.15163866 0.86588013
0.27598169 0.15087475 0.86871427
0.28626519 0.15024473 0.86900002
0.29672053 0.044041257 0.87600005
0.30458254 0.041320946 0.87520009
0.3311424 0.033529926 0.87700003
0.29209739 0.050501633 0.87700009
-0.14052953 0.070668824 0.88069314
-0.12929466 0.071082078 0.87827712
0.2814509 0.071212366 0.87400007
-0.15064768 0.083155848 0.884
-0.14239268 0.082494423 0.87662977
-0.12706326 0.081493683 0.8733303
-0.11474633 0.084688082 0.87692463
-0.10458492 0.089930527 0.88400006
0.029434258 0.089740455 0.87900001
0.037685681 0.088583663 0.87550008
0.052436024 0.08648929 0.87599987
0.067588381 0.083343245 0.87583798
0.082650729 0.081259206 0.87545455
0.097914398 0.079732276 0.8758235
0.1121118 0.080512032 0.87609303
0.1267477 0.082420245 0.87621444
0.14271621 0.084938101 0.87572497
0.15799333 0.087735318 0.87620008
0.1724782 0.089588799 0.87661904
0.18605223 0.08837425 0.87678576
0.20248111 0.085383989 0.87625003
0.21838705 0.083044223 0.87488896
0.23608877 0.08169993 0.87875009
0.24701571 0.080383115 0.87488896
0.26443368 0.078948282 0.88025004
0.27141145 0.077086493 0.88100004
-0.14144871 0.097367831 0.87698293
-0.13331513 0.10015197 0.87121069
-0.11096098 0.093999691 0.87233919
-0.097981021 0.097739004 0.87363648
-0.082712069 0.099448413 0.87416589
-0.067649558 0.099370331 0.87408763
-0.053105492 0.097718358 0.87539619
-0.037303559 0.097624265 0.87505752
-0.022308428 0.096780516 0.87498569
-0.0072569768 0.096165106 0.87472433
0.00743639 0.093945585 0.87635005
0.021612477 0.091495991 0.87545711
-0.25707915 0.10936735 0.88399988
-0.25116402 0.1172092 0.88389999
-0.23619282 0.11993262 0.88400006
-0.15501283 0.1159439 0.88168025
-0.14308457 0.11234261 0.87656564
-0.13076994 0.10841455 0.87081635
-0.1061032 0.10596845 0.87000006
-0.09323056 0.11257676 0.87009704
-0.086872213 0.11115862 0.8701821
-0.25721779 0.12190636 0.88272226
-0.24770366 0.12272894 0.88249326
-0.23514555 0.12273945 0.88213199
-0.21724026 0.1237568 0.88366669
-0.16891159 0.12845483 0.87851065
-0.15755598 0.12714052 0.87498105
-0.14546885 0.12442601 0.87078667
-0.096492112 0.13355437 0.87051541
-0.084969454 0.13327296 0.87
-0.17040004 0.13604334 0.87250012
-0.15687537 0.13652985 0.87093341
-0.10954423 0.13735083 0.87076926
-0.098023266 0.13622308 0.87240541
-0.082173929 0.1369669 0.87111282
-0.068475477 0.13948067 0.87033355
0.29643226 0.14938548 0.87120008
0.3083435 0.1476239 0.87225002
0.3211813 0.14731912 0.87273932
0.33771291 0.1479446 0.87288886
0.35156626 0.14753459 0.87307149
0.3655251 0.14885409 0.87200004
0.26945177 0.15232261 0.87000006
0.27904037 0.15150018 0.87019998
0.29073876 0.15059054 0.87100011
-0.16653672 0.056198258 0.89753854
-0.15898462 0.057467848 0.89709193
-0.14577226 0.059166331 0.89629173
-0.15541019 0.06637536 0.89387959
-0.14385919 0.064348713 0.88875592
-0.12811606 0.067671217 0.89082235
-0.11948773 0.074504405 0.89050007
0.28475431 0.071623065 0.88500005
-0.16726865 0.087021038 0.89700019
-0.15722024 0.083901197 0.89179486
-0.14926802 0.075498685 0.88500005
-0.11215024 0.082157597 0.89106661
-0.10402543 0.089407824 0.89166671
0.029285971 0.089969069 0.89400005
0.03804215 0.088248007 0.89187509
0.052016873 0.086137436 0.89185011
0.066769354 0.083470598 0.89173687
0.081806913 0.081040487 0.89100015
0.097558871 0.079472624 0.89188242
0.11179379 0.079916753 0.89166683
0.12748642 0.081591934 0.89130437
0.14223479 0.083906941 0.89154547
0.15681247 0.086783603 0.89100003
0.16876881 0.088929772 0.89115375
0.1883378 0.08892332 0.88914293
0.20345667 0.086447276 0.89175004
0.21424671 0.084884971 0.89200002
0.24237722 0.082552463 0.89850008
0.26373836 0.079463981 0.88600004
0.27119109 0.077436484 0.88500005
-0.26070958 0.10284638 0.89182264
-0.24660145 0.10110621 0.89061403
-0.2339323 0.10098791 0.89382005
-0.21817829 0.10184266 0.89769757
-0.20877284 0.10452919 0.89716673
-0.18362723 0.1033555 0.89895248
-0.17171681 0.098422475 0.89679527
-0.15717569 0.097556964 0.88917887
-0.14888556 0.099530943 0.88572001
-0.096798249 0.09172558 0.89125717
-0.082524486 0.094033681 0.89059532
-0.067080714 0.095155127 0.89112842
-0.053478714 0.095357843 0.89265519
-0.037627056 0.095396794 0.89413333
-0.022471802 0.095623933 0.89234608
-0.0069419425 0.095380813 0.89140743
0.0075972416 0.093595803 0.89171427
0.022113327 0.091288716 0.89131588
0.17717417 0.090191402 0.89300007
0.18359298 0.090292774 0.89400005
-0.27105001 0.10566932 0.89850008
-0.26068124 0.11105684 0.88871187
-0.24739496 0.11254023 0.88776654
-0.23266569 0.1122162 0.88886416
-0.21799871 0.11195126 0.89107388
-0.20330589 0.11098236 0.8936395
-0.1870614 0.11220814 0.89281094
-0.17252368 0.11254376 0.89079362
-0.15903744 0.1100268 0.88708264
-0.14926802 0.10650363 0.88500005
-0.25881577 0.12034443 0.88525003
-0.24427859 0.12034444 0.88525009
-0.23273748 0.12038966 0.88558346
-0.21861951 0.12172873 0.88533336
-0.18426278 0.12056373 0.88700008
-0.17182262 0.1216842 0.88612747
-0.16433582 0.12133995 0.88580006
-0.18283898 0.050480366 0.91118169
-0.17401792 0.052893903 0.90661514
-0.158051 0.054540697 0.90577555
-0.14394182 0.058262035 0.90615398
-0.16938643 0.063629858 0.90690005
-0.16217485 0.069134258 0.90426821
-0.13678351 0.060608819 0.90500003
-0.12726279 0.068348318 0.90662491
-0.11928573 0.074807674 0.90000004
0.28859541 0.072837017 0.90000004
-0.22940342 0.089345239 0.91149998
-0.21733816 0.089126155 0.91039282
-0.20176978 0.088761471 0.90989465
-0.18649977 0.088366434 0.90773761
-0.17328189 0.08533825 0.90498024
-0.16219653 0.079350069 0.90543348
-0.11184663 0.0825385 0.9071843
-0.10412334 0.089365423 0.90525007
0.037829194 0.088728495 0.90778577
0.052696727 0.086300835 0.90624994
0.067782782 0.083808117 0.90678585
0.081988923 0.081442975 0.90600002
0.098188043 0.079835892 0.90776479
0.1122663 0.079932369 0.9059999
0.12738997 0.081424505 0.90640002
0.14271627 0.083806798 0.90713328
0.15693094 0.086507745 0.90689468
0.16980703 0.088747926 0.90609097
0.19169876 0.089736179 0.90650004
0.19949755 0.088564314 0.90828574
0.21561153 0.085972846 0.90760005
0.22829674 0.084822275 0.91233331
0.24778414 0.082807191 0.90780008
-0.27082375 0.10368773 0.90266675
-0.26139736 0.10021928 0.90395653
-0.24698603 0.094913401 0.90548575
-0.23126467 0.094460197 0.90240777
-0.21691906 0.094572835 0.90197515
-0.20251976 0.0973171 0.90403551
-0.18783775 0.096919574 0.90238982
-0.17701991 0.09276136 0.90058059
-0.096669413 0.091610409 0.90657145
-0.082914315 0.093416691 0.90626687
-0.067153491 0.094811402 0.90790004
-0.051729273 0.095249891 0.90655005
-0.037697922 0.095520996 0.90899998
-0.022881245 0.095762566 0.90764999
-0.0079166209 0.09563458 0.90690005
0.0075900131 0.093862996 0.90733337
0.022005798 0.091742374 0.90700006
0.030637005 0.090085275 0.90500003
0.17639451 0.090397127 0.90483338
0.18386337 0.090539753 0.90337509
-0.19897562 0.10616577 0.90105009
-0.19219202 0.1053528 0.90000004
-0.18606101 0.044521432 0.92587507
-0.18618816 0.051529177 0.920322
-0.17308019 0.048107386 0.92162073
-0.15814707 0.054038316 0.92028582
-0.14419679 0.057829589 0.92069995
-0.18253374 0.061789874 0.92363644
-0.17328081 0.067419268 0.92042869
-0.16488318 0.074293755 0.91800004
-0.13654256 0.061228275 0.92175007
-0.12801179 0.068731256 0.9212274
-0.23134889 0.088722385 0.9180001
-0.21607646 0.088005297 0.91776204
-0.20351316 0.087624304 0.91804373
-0.18683894 0.085577048 0.9194001
-0.1723426 0.080498315 0.92173183
-0.16470359 0.077224635 0.91700006
-0.12096509 0.075103059 0.92800003
-0.11289073 0.082261562 0.92137039
-0.10442431 0.089661308 0.921
0.040143691 0.088770576 0.92225003
0.052246738 0.086824358 0.92189479
0.067089625 0.084587075 0.92213333
0.082746498 0.081940979 0.92206258
0.097514331 0.080313526 0.92449999
0.11218111 0.080175571 0.92076927
0.12807295 0.081417248 0.92142105
0.14279488 0.083734117 0.92237502
0.15785079 0.086385585 0.9223159
0.17114747 0.088741377 0.9231112
0.20380266 0.088934742 0.92290008
0.21608733 0.086980276 0.9233126
0.2290685 0.085352734 0.9221251
0.2470798 0.083603144 0.92090911
0.26541486 0.08215256 0.92500001
0.27352157 0.081418723 0.92360008
-0.24364395 0.091018602 0.91639996
-0.23855299 0.090111762 0.91533333
-0.09704797 0.091572538 0.91761535
-0.082215875 0.093387775 0.91709095
-0.073012039 0.094497249 0.91900003
-0.052144293 0.095207602 0.91615391
-0.03928161 0.095438421 0.91837507
-0.021842085 0.095910884 0.91755557
-0.0063536707 0.095615514 0.91766673
0.0093561821 0.093880996 0.91912508
0.023016583 0.091857575 0.91992861
0.032273147 0.09029828 0.92340004
0.17802806 0.090692997 0.91920006
0.18723686 0.091148525 0.92204171
0.19841869 0.090294093 0.92750001
-0.18784852 0.043830507 0.93604994
-0.19607435 0.048407499 0.9423334
-0.19146197 0.052749451 0.93566674
-0.17269704 0.048428968 0.9370476
-0.15778331 0.054671634 0.936158
-0.14436699 0.057995651 0.93663639
-0.185407 0.064750649 0.93780971
-0.17480798 0.071281992 0.93341678
-0.13749571 0.061878745 0.93800002
-0.12817207 0.06990061 0.93647373
-0.17064472 0.077564351 0.93142861
-0.12059549 0.0755077 0.93300003
-0.11683475 0.078953557 0.93150002
0.051844552 0.086973883 0.93000007
0.066011228 0.08498098 0.93160009
0.083446585 0.082123876 0.93390006
0.099214524 0.080360509 0.93600005
0.11273687 0.080298536 0.93494135
0.12696575 0.081185639 0.93370008
0.14136496 0.083323151 0.93360007
0.1567474 0.085795641 0.93269998
0.17243473 0.088738486 0.93250006
0.1810177 0.089711823 0.93200004
0.20539206 0.089154065 0.93150008
0.21845032 0.087161623 0.93337506
0.2343623 0.085363172 0.93518198
0.24806377 0.084153064 0.93421429
0.26192296 0.083159901 0.93713343
0.27750751 0.081704408 0.93900001
0.19640918 0.090537481 0.93000007
-0.19658037 0.043726161 0.9528001
-0.18927556 0.043124251 0.95173341
-0.19757447 0.052048624 0.94986659
-0.18142903 0.045625616 0.95320004
-0.17163196 0.049484458 0.95252943
-0.15929078 0.054830916 0.9515
-0.14566247 0.057835698 0.94844449
-0.19321331 0.060506087 0.94600004
-0.13943212 0.061282508 0.95000005
-0.13352586 0.066132933 0.94500005
-0.19920987 0.043018628 0.9641667
-0.18949984 0.042977113 0.96400005
-0.20153329 0.045801871 0.96350002
-0.18245117 0.045252319 0.96300006
-0.17692639 0.047501612 0.96160001
